ncols        113
nrows        38
xllcorner    473009.9838
yllcorner    4432701.1748
cellsize     100.000000000000
NODATA_value  -9999
-9999 -9999 -9999 -9999 -0.67747771739959716797 -0.69536292552947998047 -0.71184563636779785156 -0.4595432281494140625 -0.13529881834983825684 -0.014270074665546417236 0.036377318203449249268 0.024111036211252212524 -0.10496737807989120483 -0.18469133973121643066 -0.14318375289440155029 -0.014437099918723106384 0.23474839329719543457 0.40088981389999389648 0.43330690264701843262 0.44546687602996826172 0.46773263812065124512 0.45634809136390686035 0.46536120772361755371 0.4851513206958770752 0.54291570186614990234 0.60451418161392211914 0.65421748161315917969 0.67876833677291870117 0.67419105768203735352 0.66263735294342041016 0.66499364376068115234 0.68964058160781860352 0.71812683343887329102 0.72035497426986694336 0.65423828363418579102 0.55178117752075195313 0.48847874999046325684 0.4776312410831451416 0.50825011730194091797 0.5379727482795715332 0.56630551815032958984 0.613067626953125 0.69102627038955688477 0.75138592720031738281 0.78942650556564331055 0.81615930795669555664 0.80428159236907958984 0.78492701053619384766 0.7918243408203125 0.80055296421051025391 0.78069293498992919922 0.74943196773529052734 0.76237922906875610352 0.82087886333465576172 0.89715522527694702148 0.90009969472885131836 0.79899835586547851563 0.71453881263732910156 0.65786164999008178711 0.56064206361770629883 0.45104673504829406738 0.40923485159873962402 0.41203913092613220215 0.42461365461349487305 -9999 -9999 -9999 -9999 -9999 -9999 -9999 0.47698247432708740234 0.56275075674057006836 0.66045707464218139648 0.71294134855270385742 0.73997950553894042969 0.69800430536270141602 0.5688731074333190918 0.48865532875061035156 0.46366620063781738281 0.42854323983192443848 0.4087238013744354248 0.40366914868354797363 0.38521355390548706055 0.35739955306053161621 0.35271638631820678711 0.37941113114356994629 0.41340610384941101074 0.44581612944602966309 0.46525180339813232422 0.4806963503360748291 0.4922714531421661377 0.50193935632705688477 0.51891565322875976563 0.53471004962921142578 0.52698320150375366211 0.47389242053031921387 0.36307156085968017578 0.28425323963165283203 -9999 -9999 -9999 -9999 -9999 -9999 -9999 -9999 -9999 -9999 -9999 -9999 -9999 -9999
-9999 -9999 -9999 -9999 -9999 -0.79064774513244628906 -0.79291558265686035156 -0.56138086318969726563 -0.15584252774715423584 -0.039322849363088607788 -0.017256563529372215271 -0.068272538483142852783 -0.17120699584484100342 -0.26295492053031921387 -0.1749362647533416748 0.020735790953040122986 0.24404129385948181152 0.35414037108421325684 0.36471498012542724609 0.37717637419700622559 0.40244087576866149902 0.39606875181198120117 0.42212429642677307129 0.47604024410247802734 0.53756219148635864258 0.58884376287460327148 0.63400304317474365234 0.64585286378860473633 0.60611289739608764648 0.57599300146102905273 0.59564375877380371094 0.63348382711410522461 0.68076682090759277344 0.69702798128128051758 0.64653551578521728516 0.54624330997467041016 0.4646415412425994873 0.44296130537986755371 0.4818954765796661377 0.51006269454956054688 0.54532772302627563477 0.59631228446960449219 0.65598922967910766602 0.69673466682434082031 0.73056662082672119141 0.74234992265701293945 0.70509636402130126953 0.70595830678939819336 0.72789418697357177734 0.72922664880752563477 0.70938575267791748047 0.68107175827026367188 0.68873995542526245117 0.72745239734649658203 0.79218506813049316406 0.82295763492584228516 0.7328205108642578125 0.65871697664260864258 0.61165696382522583008 0.54546123743057250977 0.45574861764907836914 0.4016926884651184082 0.41934061050415039063 0.49208882451057434082 0.59438699483871459961 0.60881650447845458984 -9999 -9999 -9999 -9999 -9999 0.44265887141227722168 0.51115840673446655273 0.59892141819000244141 0.71246588230133056641 0.7449016571044921875 0.6699536442756652832 0.54704618453979492188 0.5008494257926940918 0.47682794928550720215 0.4423949122428894043 0.41518306732177734375 0.40792816877365112305 0.37566709518432617188 0.32024252414703369141 0.2983328700065612793 0.33057188987731933594 0.38200908899307250977 0.41274842619895935059 0.43735191226005554199 0.46776780486106872559 0.47940361499786376953 0.48467376828193664551 0.50329178571701049805 0.52656799554824829102 0.52195411920547485352 0.47828063368797302246 0.37331148982048034668 0.28211560845375061035 0.273654937744140625 -9999 -9999 -9999 -9999 -9999 -9999 -9999 -9999 -9999 -9999 -9999 -9999 -9999
-9999 -9999 -9999 -9999 -9999 -0.79559481143951416016 -0.79992187023162841797 -0.59698516130447387695 -0.1961164623498916626 -0.10666529089212417603 -0.16612696647644042969 -0.31183677911758422852 -0.37555918097496032715 -0.36270612478256225586 -0.14132483303546905518 0.14002646505832672119 0.27118843793869018555 0.31588384509086608887 0.31743347644805908203 0.32251515984535217285 0.34007924795150756836 0.36365354061126708984 0.41957294940948486328 0.47744631767272949219 0.5208829045295715332 0.55492240190505981445 0.58331215381622314453 0.58360505104064941406 0.53995710611343383789 0.48727440834045410156 0.51332455873489379883 0.56740874052047729492 0.63625442981719970703 0.65208131074905395508 0.59811687469482421875 0.5126984715461730957 0.43390262126922607422 0.41601550579071044922 0.44904699921607971191 0.48983198404312133789 0.53979820013046264648 0.59722083806991577148 0.63286691904067993164 0.65330725908279418945 0.66953057050704956055 0.66721755266189575195 0.63914149999618530273 0.64891922473907470703 0.65840369462966918945 0.66183447837829589844 0.63956207036972045898 0.60164499282836914063 0.60538071393966674805 0.63503760099411010742 0.68780559301376342773 0.72365051507949829102 0.65573751926422119141 0.59022444486618041992 0.54396820068359375 0.47729676961898803711 0.37435066699981689453 0.34957826137542724609 0.44731894135475158691 0.55666381120681762695 0.61659908294677734375 0.63975137472152709961 0.68260306119918823242 -9999 -9999 -9999 -9999 -9999 0.45886573195457458496 0.50747931003570556641 0.64257478713989257813 0.7146174311637878418 0.63558048009872436523 0.54348897933959960938 0.52328824996948242188 0.49742156267166137695 0.46555152535438537598 0.42957949638366699219 0.40921071171760559082 0.37574905157089233398 0.3114045560359954834 0.27662062644958496094 0.28667688369750976563 0.31277692317962646484 0.33804708719253540039 0.40936130285263061523 0.44994786381721496582 0.46856963634490966797 0.47666466236114501953 0.49385932087898254395 0.52460408210754394531 0.52982699871063232422 0.50072377920150756836 0.40720871090888977051 0.29011493921279907227 0.273654937744140625 -9999 -9999 -9999 -9999 -9999 -9999 -9999 -9999 -9999 -9999 -9999 -9999 -9999
-9999 -9999 -9999 -9999 -9999 -9999 -0.78847032785415649414 -0.58952623605728149414 -0.29796868562698364258 -0.25718203186988830566 -0.3963164985179901123 -0.47293040156364440918 -0.42873543500900268555 -0.35860535502433776855 -0.086473941802978515625 0.15781332552433013916 0.2401418834924697876 0.2753276824951171875 0.26890999078750610352 0.27162149548530578613 0.31361913681030273438 0.37608477473258972168 0.43037241697311401367 0.47167032957077026367 0.49738827347755432129 0.51701658964157104492 0.53118276596069335938 0.53149765729904174805 0.49268120527267456055 0.4278106391429901123 0.45148146152496337891 0.5190741419792175293 0.57579123973846435547 0.59136098623275756836 0.54928594827651977539 0.46820354461669921875 0.41060870885848999023 0.40498122572898864746 0.43281432986259460449 0.4836495518684387207 0.53286463022232055664 0.58682990074157714844 0.60805314779281616211 0.61839956045150756836 0.62466704845428466797 0.61708581447601318359 0.60485655069351196289 0.6072406768798828125 0.5853214263916015625 0.56962066888809204102 0.55877000093460083008 0.52526468038558959961 0.52330988645553588867 0.53620475530624389648 0.58604818582534790039 0.59582680463790893555 0.55714428424835205078 0.51331329345703125 0.47693401575088500977 0.40804633498191833496 0.30998513102531433105 0.40553969144821166992 0.54893487691879272461 0.62570375204086303711 0.66332793235778808594 0.67849624156951904297 0.67406958341598510742 0.59207862615585327148 -9999 -9999 -9999 -9999 0.40252783894538879395 0.4321079552173614502 0.56053513288497924805 0.66957962512969970703 0.61869823932647705078 0.54782414436340332031 0.5389582514762878418 0.50395447015762329102 0.4661121070384979248 0.42678064107894897461 0.3914394676685333252 0.34585005044937133789 0.28036838769912719727 0.25265422463417053223 0.26784521341323852539 0.25670653581619262695 0.27604174613952636719 0.37843936681747436523 0.43111184239387512207 0.45489808917045593262 0.47334516048431396484 0.50087189674377441406 0.53246903419494628906 0.53787791728973388672 0.51658684015274047852 0.43266063928604125977 0.29563364386558532715 0.29564839601516723633 0.44139587879180908203 -9999 -9999 -9999 -9999 -9999 -9999 -9999 -9999 -9999 -9999 -9999 -9999
-9999 -9999 -9999 -9999 -9999 -0.82282119989395141602 -0.81335443258285522461 -0.67470586299896240234 -0.54754751920700073242 -0.50491380691528320313 -0.50899773836135864258 -0.44847854971885681152 -0.36519277095794677734 -0.31204500794410705566 -0.098520152270793914795 0.094287298619747161865 0.18751327693462371826 0.22946515679359436035 0.21701104938983917236 0.24999451637268066406 0.31878653168678283691 0.37349951267242431641 0.41807678341865539551 0.44584774971008300781 0.46332153677940368652 0.48076811432838439941 0.48970532417297363281 0.49238294363021850586 0.45992967486381530762 0.41348722577095031738 0.44097861647605895996 0.48774385452270507813 0.51360452175140380859 0.53832763433456420898 0.49939385056495666504 0.42712196707725524902 0.38550642132759094238 0.38005241751670837402 0.40985968708992004395 0.46053099632263183594 0.50276887416839599609 0.54456681013107299805 0.56573098897933959961 0.58159071207046508789 0.58572828769683837891 0.57995831966400146484 0.56882524490356445313 0.55566412210464477539 0.52713543176651000977 0.49953404068946838379 0.49254557490348815918 0.47087326645851135254 0.46459764242172241211 0.4600130617618560791 0.47212252020835876465 0.45308059453964233398 0.43971937894821166992 0.42715379595756530762 0.4084523320198059082 0.33841794729232788086 0.32762077450752258301 0.50928723812103271484 0.64022850990295410156 0.67413032054901123047 0.68443971872329711914 0.66158652305603027344 0.58227586746215820313 0.45645791292190551758 0.40508168935775756836 -9999 -9999 -9999 0.39877963066101074219 0.41849279403686523438 0.51291435956954956055 0.60682636499404907227 0.58211362361907958984 0.49724268913269042969 0.48307755589485168457 0.47850379347801208496 0.43833512067794799805 0.39296516776084899902 0.35097020864486694336 0.30658408999443054199 0.24068996310234069824 0.18089133501052856445 0.21190460026264190674 0.20264852046966552734 0.21489067375659942627 0.32501429319381713867 0.40794834494590759277 0.44125548005104064941 0.4715455174446105957 0.50639140605926513672 0.52730518579483032227 0.52544105052947998047 0.50702458620071411133 0.43805932998657226563 0.28728985786437988281 0.34613668918609619141 0.48196059465408325195 0.52822911739349365234 0.55200791358947753906 -9999 -9999 -9999 -9999 -9999 -9999 -9999 -9999 -9999 -9999
-9999 -9999 -9999 -9999 -0.82888281345367431641 -0.80258721113204956055 -0.68249762058258056641 -0.44987738132476806641 -0.37210988998413085938 -0.37061518430709838867 -0.32036423683166503906 -0.26931041479110717773 -0.17913144826889038086 -0.15690582990646362305 -0.069006986916065216064 0.017425859346985816956 0.11525595933198928833 0.17643530666828155518 0.18747062981128692627 0.23719242215156555176 0.30420726537704467773 0.34491860866546630859 0.3861064910888671875 0.41088265180587768555 0.42457020282745361328 0.44877389073371887207 0.46158349514007568359 0.47019079327583312988 0.43853813409805297852 0.4038372039794921875 0.41200605034828186035 0.41773214936256408691 0.44280925393104553223 0.47336366772651672363 0.44420680403709411621 0.40168249607086181641 0.36317244172096252441 0.35443219542503356934 0.39218786358833312988 0.43554955720901489258 0.4691206514835357666 0.4995822906494140625 0.52273702621459960938 0.54195266962051391602 0.55207276344299316406 0.55240559577941894531 0.54072588682174682617 0.51908993721008300781 0.49495258927345275879 0.46408200263977050781 0.4455604851245880127 0.41630941629409790039 0.4108874201774597168 0.40214574337005615234 0.38944950699806213379 0.37919834256172180176 0.36690917611122131348 0.34923818707466125488 0.31652909517288208008 0.28716173768043518066 0.39929381012916564941 0.60201150178909301758 0.67838186025619506836 0.6810767054557800293 0.6702544093132019043 0.58342200517654418945 0.47994443774223327637 0.41246512532234191895 0.39597910642623901367 -9999 -9999 -9999 0.40236642956733703613 0.42581841349601745605 0.49270075559616088867 0.55365985631942749023 0.51121830940246582031 0.43130466341972351074 0.42275911569595336914 0.43441784381866455078 0.39767181873321533203 0.34668871760368347168 0.30595469474792480469 0.27907586097717285156 0.23535014688968658447 0.15621337294578552246 0.14823941886425018311 0.14861465990543365479 0.18921951949596405029 0.29285451769828796387 0.37833306193351745605 0.42491629719734191895 0.46609276533126831055 0.49333184957504272461 0.50301516056060791016 0.5015919804573059082 0.49114158749580383301 0.44446411728858947754 0.28286275267601013184 0.29736566543579101563 0.4462681114673614502 0.51968979835510253906 0.54466378688812255859 -9999 -9999 -9999 -9999 -9999 -9999 -9999 -9999 -9999 -9999
-9999 -9999 -9999 -9999 -0.86841231584548950195 -0.74680656194686889648 -0.47805413603782653809 -0.30585381388664245605 -0.23588286340236663818 -0.21703186631202697754 -0.20250418782234191895 -0.16907560825347900391 -0.10744155943393707275 -0.034124467521905899048 0.043061662465333938599 0.079027667641639709473 0.11068303883075714111 0.13959008455276489258 0.15775300562381744385 0.21526612341403961182 0.27821183204650878906 0.31481140851974487305 0.3447183072566986084 0.36985948681831359863 0.39466932415962219238 0.4164448082447052002 0.4311351478099822998 0.43972790241241455078 0.40959948301315307617 0.35657316446304321289 0.33898267149925231934 0.33438208699226379395 0.3816045224666595459 0.39160481095314025879 0.37048119306564331055 0.3440907597541809082 0.32583570480346679688 0.33069214224815368652 0.3770141303539276123 0.41795969009399414063 0.45492139458656311035 0.47981712222099304199 0.49552875757217407227 0.51361447572708129883 0.52925372123718261719 0.53096395730972290039 0.51864981651306152344 0.4945628046989440918 0.46823516488075256348 0.43282556533813476563 0.39787524938583374023 0.36946013569831848145 0.36378625035285949707 0.35364678502082824707 0.34039646387100219727 0.33161899447441101074 0.31778562068939208984 0.2866242527961730957 0.22592538595199584961 0.28974512219429016113 0.45504412055015563965 0.62988084554672241211 0.65883177518844604492 0.64253067970275878906 0.60834348201751708984 0.52577346563339233398 0.43346726894378662109 0.39253792166709899902 0.38672053813934326172 -9999 -9999 -9999 0.40684282779693603516 0.43291023373603820801 0.47234237194061279297 0.50907629728317260742 0.4420013725757598877 0.40034505724906921387 0.36553597450256347656 0.36602810025215148926 0.33875551819801330566 0.29452851414680480957 0.25487798452377319336 0.24117337167263031006 0.21077765524387359619 0.15128497779369354248 0.12931832671165466309 0.13903243839740753174 0.1936499476432800293 0.27506580948829650879 0.3484032750129699707 0.41002067923545837402 0.45701971650123596191 0.47981482744216918945 0.48126295208930969238 0.4731635749340057373 0.46309420466423034668 0.42006009817123413086 0.25869730114936828613 0.21098668873310089111 0.40524619817733764648 0.52060502767562866211 0.5834827423095703125 0.63335698843002319336 -9999 -9999 -9999 -9999 -9999 -9999 -9999 -9999 -9999
-9999 -9999 -9999 -9999 -0.83494192361831665039 -0.77871775627136230469 -0.45131590962409973145 -0.30905392765998840332 -0.23647691309452056885 -0.21147052943706512451 -0.21384486556053161621 -0.17578074336051940918 -0.096974283456802368164 -0.018263500183820724487 0.06581767648458480835 0.12696936726570129395 0.13537430763244628906 0.13954724371433258057 0.16372723877429962158 0.209056854248046875 0.24689154326915740967 0.26935073733329772949 0.29731157422065734863 0.33915197849273681641 0.37140202522277832031 0.37955841422080993652 0.39054131507873535156 0.40589684247970581055 0.37853544950485229492 0.28738969564437866211 0.25507432222366333008 0.28430896997451782227 0.32028102874755859375 0.30497688055038452148 0.29165664315223693848 0.27084273099899291992 0.2763023674488067627 0.30146911740303039551 0.35259428620338439941 0.39223486185073852539 0.4333896636962890625 0.46618470549583435059 0.47920790314674377441 0.48768958449363708496 0.50168436765670776367 0.50534063577651977539 0.49758547544479370117 0.4749565422534942627 0.43988475203514099121 0.4056466221809387207 0.36072468757629394531 0.32559692859649658203 0.31439101696014404297 0.30556529760360717773 0.29524841904640197754 0.29077470302581787109 0.26978212594985961914 0.19829443097114562988 0.18524397909641265869 0.31982570886611938477 0.47224503755569458008 0.60880607366561889648 0.61844867467880249023 0.56306320428848266602 0.51282823085784912109 0.47511732578277587891 0.41620290279388427734 0.39205786585807800293 0.38469499349594116211 -9999 -9999 -9999 -9999 -9999 -9999 -9999 0.42355680465698242188 0.3847599029541015625 0.29935416579246520996 0.28077232837677001953 0.27252340316772460938 0.23565320670604705811 0.19124150276184082031 0.18929128348827362061 0.18210148811340332031 0.13521310687065124512 0.085078641772270202637 0.099504187703132629395 0.16122518479824066162 0.24473436176776885986 0.32447931170463562012 0.39627882838249206543 0.44267570972442626953 0.46271210908889770508 0.45578148961067199707 0.44125631451606750488 0.41591981053352355957 0.36073756217956542969 0.24426218867301940918 0.18959495425224304199 0.39619022607803344727 0.55402714014053344727 0.62012678384780883789 0.6362215876579284668 0.63628357648849487305 -9999 -9999 -9999 -9999 -9999 -9999 -9999 -9999
-9999 -9999 -9999 -9999 -0.86028528213500976563 -0.79049277305603027344 -0.43741285800933837891 -0.30536544322967529297 -0.23939976096153259277 -0.24418421089649200439 -0.25323915481567382813 -0.19491316378116607666 -0.10564941167831420898 -0.025093238800764083862 0.048300188034772872925 0.11127459257841110229 0.13604407012462615967 0.14295701682567596436 0.16748395562171936035 0.19421738386154174805 0.20697517693042755127 0.2177985459566116333 0.27092134952545166016 0.32161119580268859863 0.34146785736083984375 0.33893564343452453613 0.34934821724891662598 0.36684116721153259277 0.35221055150032043457 0.23958630859851837158 0.16759523749351501465 0.24685785174369812012 0.26947617530822753906 0.22370266914367675781 0.20685057342052459717 0.20422205328941345215 0.25058731436729431152 0.2977714836597442627 0.3263835906982421875 0.35969507694244384766 0.40112900733947753906 0.44133785367012023926 0.47120043635368347168 0.47924053668975830078 0.4842560887336730957 0.48621568083763122559 0.47668609023094177246 0.44476965069770812988 0.40484976768493652344 0.3695125281810760498 0.33839401602745056152 0.2985134124755859375 0.27559828758239746094 0.26250872015953063965 0.25372815132141113281 0.24732190370559692383 0.19918030500411987305 0.148934975266456604 0.21754893660545349121 0.35695859789848327637 0.4885565340518951416 0.59357368946075439453 0.58654534816741943359 0.52529507875442504883 0.46163630485534667969 0.43333393335342407227 0.40922486782073974609 0.39323848485946655273 -9999 -9999 -9999 -9999 -9999 -9999 -9999 -9999 0.41233864426612854004 0.39963307976722717285 0.31509470939636230469 0.24482858180999755859 0.21330529451370239258 0.16802267730236053467 0.12528808414936065674 0.13532938063144683838 0.14936408400535583496 0.12256389111280441284 0.039281021803617477417 0.031614076346158981323 0.082129389047622680664 0.18017704784870147705 0.28025087714195251465 0.37196591496467590332 0.42366912961006164551 0.43173378705978393555 0.42532670497894287109 0.40577390789985656738 0.34768006205558776855 0.26616874337196350098 0.17891801893711090088 0.1821476668119430542 0.39257994294166564941 0.54564470052719116211 0.59998887777328491211 0.61962550878524780273 0.62044465541839599609 0.5815486907958984375 -9999 -9999 -9999 -9999 -9999 -9999 -9999
-9999 -9999 -9999 -9999 -0.90703445672988891602 -0.67887026071548461914 -0.40303018689155578613 -0.3072852790355682373 -0.25434800982475280762 -0.27964538335800170898 -0.27051660418510437012 -0.20723123848438262939 -0.12295100092887878418 -0.05076669156551361084 0.011066828854382038116 0.070368967950344085693 0.1170144006609916687 0.13147427141666412354 0.1436910480260848999 0.15229856967926025391 0.16443923115730285645 0.1926650702953338623 0.25618401169776916504 0.29470428824424743652 0.30296778678894042969 0.30090254545211791992 0.31602427363395690918 0.33617317676544189453 0.32682767510414123535 0.21927535533905029297 0.13387086987495422363 0.18343144655227661133 0.22576376795768737793 0.20577104389667510986 0.1769940108060836792 0.18281638622283935547 0.26408123970031738281 0.29529520869255065918 0.30145019292831420898 0.32700133323669433594 0.37154680490493774414 0.41900551319122314453 0.44956117868423461914 0.46500989794731140137 0.47103300690650939941 0.46430373191833496094 0.44469207525253295898 0.40675422549247741699 0.35762566328048706055 0.3304011225700378418 0.32758146524429321289 0.29922667145729064941 0.26344847679138183594 0.23315697908401489258 0.20038089156150817871 0.17530815303325653076 0.12556327879428863525 0.16117484867572784424 0.2748877406120300293 0.4080238640308380127 0.52603054046630859375 0.57345372438430786133 0.53424412012100219727 0.48114335536956787109 0.4252713620662689209 0.40827763080596923828 0.40318760275840759277 -9999 -9999 -9999 -9999 -9999 -9999 -9999 -9999 -9999 0.4125824272632598877 0.40151485800743103027 0.33485800027847290039 0.23855794966220855713 0.1652491837739944458 0.097471185028553009033 0.05384655296802520752 0.069858737289905548096 0.097270667552947998047 0.091453693807125091553 0.018442988395690917969 -0.029786383733153343201 -0.0065956413745880126953 0.113195076584815979 0.22163763642311096191 0.32502201199531555176 0.38302600383758544922 0.38787722587585449219 0.38105559349060058594 0.3541857302188873291 0.25769329071044921875 0.15079680085182189941 0.14644229412078857422 0.24518884718418121338 0.42692434787750244141 0.52934819459915161133 0.5571829676628112793 0.57787787914276123047 0.57363921403884887695 0.54386001825332641602 0.51910036802291870117 -9999 -9999 -9999 -9999 -9999 -9999
-9999 -9999 -9999 -9999 -0.88009887933731079102 -0.61783945560455322266 -0.41223278641700744629 -0.34065645933151245117 -0.32754445075988769531 -0.35370045900344848633 -0.29847246408462524414 -0.21910773217678070068 -0.14361430704593658447 -0.081457763910293579102 -0.027557851746678352356 0.018759567290544509888 0.055296950042247772217 0.07413317263126373291 0.091344907879829406738 0.095404475927352905273 0.10931938141584396362 0.15411609411239624023 0.21925143897533416748 0.25559079647064208984 0.26224809885025024414 0.26646241545677185059 0.2793248295783996582 0.29924288392066955566 0.30024316906929016113 0.22023902833461761475 0.12095665931701660156 0.12131525576114654541 0.16817472875118255615 0.16815246641635894775 0.15081760287284851074 0.18658995628356933594 0.26001021265983581543 0.28356432914733886719 0.2766087651252746582 0.2815138399600982666 0.32258132100105285645 0.37834638357162475586 0.40310233831405639648 0.41145464777946472168 0.41302567720413208008 0.4066874384880065918 0.39610120654106140137 0.36402815580368041992 0.31392052769660949707 0.28466632962226867676 0.28878435492515563965 0.28231132030487060547 0.25063309073448181152 0.21943947672843933105 0.15858210623264312744 0.078224360942840576172 0.098312132060527801514 0.20358391106128692627 0.30624818801879882813 0.43765288591384887695 0.53927028179168701172 0.54034066200256347656 0.47406277060508728027 0.42768773436546325684 0.4087314903736114502 0.40652397274971008301 -9999 0.40520107746124267578 0.40334299206733703613 0.40002036094665527344 0.39688786864280700684 0.40677252411842346191 0.41171610355377197266 0.41383481025695800781 -9999 -9999 -9999 0.4167264401912689209 0.37246659398078918457 0.2478841245174407959 0.11258333921432495117 0.02347704768180847168 -0.0073839682154357433319 0.010712394490838050842 0.029073750600218772888 0.021814281120896339417 -0.0068762358278036117554 -0.054806083440780639648 -0.029723150655627250671 0.070900827646255493164 0.16254973411560058594 0.24891020357608795166 0.30802929401397705078 0.33350202441215515137 0.32563373446464538574 0.29384982585906982422 0.18332412838935852051 0.07993663102388381958 0.18424972891807556152 0.32895365357398986816 0.44228383898735046387 0.48962169885635375977 0.50063395500183105469 0.52217918634414672852 0.53267747163772583008 0.51296138763427734375 0.49025756120681762695 -9999 -9999 -9999 -9999 -9999 -9999
-9999 -9999 -9999 -1.0488971471786499023 -0.85640084743499755859 -0.58433765172958374023 -0.46319550275802612305 -0.41847825050354003906 -0.41643026471138000488 -0.40239432454109191895 -0.31863138079643249512 -0.23180831968784332275 -0.1699870675802230835 -0.11255943775177001953 -0.079209685325622558594 -0.054621588438749313354 -0.023017382249236106873 0.0022151058074086904526 0.01973821595311164856 0.023522807285189628601 0.042988028377294540405 0.093164086341857910156 0.1508207172155380249 0.19227942824363708496 0.21736735105514526367 0.23202045261859893799 0.23859205842018127441 0.25601741671562194824 0.26786145567893981934 0.21039763092994689941 0.067538268864154815674 0.052313789725303649902 0.1109097599983215332 0.12681524455547332764 0.12723019719123840332 0.14809735119342803955 0.21157513558864593506 0.24941314756870269775 0.24964132905006408691 0.22387905418872833252 0.26783046126365661621 0.3255850672721862793 0.34506380558013916016 0.35064283013343811035 0.34169521927833557129 0.3380959630012512207 0.34801617264747619629 0.32864290475845336914 0.28341206908226013184 0.26263582706451416016 0.25651973485946655273 0.23587056994438171387 0.20405940711498260498 0.1516475379467010498 0.041204623878002166748 0.013173887506127357483 0.1102291792631149292 0.22649073600769042969 0.32853409647941589355 0.45327401161193847656 0.51616001129150390625 0.50265866518020629883 0.44316160678863525391 0.40860792994499206543 0.40477320551872253418 0.40565928816795349121 -9999 0.40790134668350219727 0.40582633018493652344 0.40022400021553039551 0.39660686254501342773 0.40651813149452209473 0.41081899404525756836 0.41270056366920471191 -9999 -9999 -9999 0.42472246289253234863 0.39642548561096191406 0.26438552141189575195 0.089815050363540649414 -0.02204476483166217804 -0.050723843276500701904 -0.031021913513541221619 -0.03360633552074432373 -0.058608148247003555298 -0.065949156880378723145 -0.067285358905792236328 -0.023747468367218971252 0.057185396552085876465 0.12557908892631530762 0.19493936002254486084 0.25277841091156005859 0.28729152679443359375 0.27958920598030090332 0.2481928020715713501 0.16061969101428985596 0.048510476946830749512 0.16546113789081573486 0.32942602038383483887 0.40621507167816162109 0.4231033623218536377 0.43150186538696289063 0.45833221077919006348 0.48563057184219360352 0.48855882883071899414 0.48212885856628417969 -9999 -9999 -9999 -9999 -9999 -9999
-9999 -9999 -9999 -1.075928807258605957 -0.90527373552322387695 -0.62857669591903686523 -0.57711058855056762695 -0.52741670608520507813 -0.5042781829833984375 -0.41863530874252319336 -0.31223386526107788086 -0.23348896205425262451 -0.18720524013042449951 -0.14747315645217895508 -0.14026153087615966797 -0.13383573293685913086 -0.09892222285270690918 -0.069491215050220489502 -0.053094021975994110107 -0.040228489786386489868 -0.013240049593150615692 0.032324817031621932983 0.074875533580780029297 0.12625987827777862549 0.16825044155120849609 0.18158210813999176025 0.18782153725624084473 0.21068550646305084229 0.22034281492233276367 0.12703718245029449463 -0.0062563903629779815674 0.014442698098719120026 0.057150039821863174438 0.068742394447326660156 0.055247236043214797974 0.065651901066303253174 0.15851742029190063477 0.20563398301601409912 0.2020733952522277832 0.16686348617076873779 0.21860143542289733887 0.27436921000480651855 0.27943715453147888184 0.2842655181884765625 0.28281864523887634277 0.2808189094066619873 0.29070836305618286133 0.28177553415298461914 0.26601126790046691895 0.24674136936664581299 0.20338776707649230957 0.10983522236347198486 0.012991261668503284454 -0.027129992842674255371 0.0043444200418889522552 0.08883807063102722168 0.16403591632843017578 0.2511622309684753418 0.3582261502742767334 0.46028369665145874023 0.47792097926139831543 0.46156331896781921387 0.43431675434112548828 0.40641102194786071777 0.40302225947380065918 -9999 -9999 0.40982037782669067383 0.4079011380672454834 0.40068846940994262695 0.39669275283813476563 0.40324065089225769043 0.40964356064796447754 0.41200897097587585449 -9999 -9999 -9999 0.42263516783714294434 0.39157009124755859375 0.27165040373802185059 0.089323125779628753662 -0.043296098709106445313 -0.10272969305515289307 -0.087771244347095489502 -0.091210342943668365479 -0.11148552596569061279 -0.11404519528150558472 -0.076503790915012359619 -0.00645586429163813591 0.064090430736541748047 0.11507915705442428589 0.16719129681587219238 0.22485563158988952637 0.24949157238006591797 0.24004641175270080566 0.21798886358737945557 0.16554725170135498047 0.04487210884690284729 0.11514197289943695068 0.29795411229133605957 0.35149440169334411621 0.36206316947937011719 0.37663036584854125977 0.40240114927291870117 0.43020039796829223633 0.44667765498161315918 -9999 -9999 -9999 -9999 -9999 -9999 -9999
-9999 -9999 -9999 -1.0867673158645629883 -0.99042159318923950195 -0.74691140651702880859 -0.61423432826995849609 -0.52455770969390869141 -0.47521468997001647949 -0.3976185917854309082 -0.31089806556701660156 -0.24465741217136383057 -0.20623157918453216553 -0.18834406137466430664 -0.18908849358558654785 -0.19591572880744934082 -0.16515746712684631348 -0.14009554684162139893 -0.11831360310316085815 -0.099216960370540618896 -0.063342064619064331055 -0.021553881466388702393 0.013880261220037937164 0.0683193206787109375 0.10769717395305633545 0.11939893662929534912 0.1359650343656539917 0.16805575788021087646 0.16353753209114074707 0.021285956725478172302 -0.079021856188774108887 -0.0044049667194485664368 0.010907500050961971283 -0.0025479269679635763168 -0.0049578356556594371796 0.013879429548978805542 0.10091672837734222412 0.15278799831867218018 0.1478506624698638916 0.12456757575273513794 0.1623007655143737793 0.21571914851665496826 0.21978683769702911377 0.2257525324821472168 0.23173654079437255859 0.23142577707767486572 0.2255461961030960083 0.22150056064128875732 0.23118574917316436768 0.21344070136547088623 0.057547528296709060669 -0.10461813956499099731 -0.057937759906053543091 0.030958037823438644409 0.12497609108686447144 0.18360097706317901611 0.22028270363807678223 0.28724369406700134277 0.39383730292320251465 0.47775605320930480957 0.48946800827980041504 0.46882319450378417969 0.43979448080062866211 0.39952740073204040527 0.39195883274078369141 0.40511059761047363281 0.41131818294525146484 0.41195529699325561523 0.40859130024909973145 0.39940446615219116211 0.38976839184761047363 0.38523456454277038574 0.38363045454025268555 0.39547511935234069824 0.40446931123733520508 0.40920406579971313477 0.41570618748664855957 0.40621009469032287598 0.37031772732734680176 0.25841608643531799316 0.058654930442571640015 -0.091193497180938720703 -0.16324676573276519775 -0.16618686914443969727 -0.13968412578105926514 -0.11819358170032501221 -0.08749751746654510498 -0.050851970911026000977 0.018151162192225456238 0.079613395035266876221 0.11556088924407958984 0.15566654503345489502 0.19424483180046081543 0.20404671132564544678 0.19928659498691558838 0.18018059432506561279 0.14355002343654632568 0.042039748281240463257 0.049963992089033126831 0.22814476490020751953 0.3245633542537689209 0.34392124414443969727 0.3563295900821685791 0.37857079505920410156 0.3994820713996887207 0.40359154343605041504 -9999 -9999 -9999 -9999 -9999 -9999 -9999
-9999 -9999 -1.0894399881362915039 -1.0858294963836669922 -0.97705763578414916992 -0.69765263795852661133 -0.52749216556549072266 -0.44036400318145751953 -0.40258172154426574707 -0.37785843014717102051 -0.31825405359268188477 -0.26496130228042602539 -0.23816588521003723145 -0.23002843558788299561 -0.24305933713912963867 -0.25740313529968261719 -0.23290698230266571045 -0.20862589776515960693 -0.18971520662307739258 -0.15725153684616088867 -0.11200469732284545898 -0.06685438007116317749 -0.018900610506534576416 0.015626851469278335571 0.042405623942613601685 0.062460739165544509888 0.079819113016128540039 0.10309950262308120728 0.077558130025863647461 -0.086098700761795043945 -0.14673641324043273926 -0.052967973053455352783 -0.044045113027095794678 -0.071910485625267028809 -0.045771941542625427246 0.0073169730603694915771 0.064191520214080810547 0.10159543901681900024 0.093020983040332794189 0.060223679989576339722 0.092268019914627075195 0.15099294483661651611 0.15800406038761138916 0.16705900430679321289 0.18196815252304077148 0.18264353275299072266 0.17148819565773010254 0.16752347350120544434 0.17243085801601409912 0.11224388331174850464 -0.13615204393863677979 -0.1278365403413772583 0.12035449594259262085 0.22832468152046203613 0.24033407866954803467 0.24385803937911987305 0.26640960574150085449 0.32543301582336425781 0.42269587516784667969 0.50374442338943481445 0.52821707725524902344 0.50687193870544433594 0.45798277854919433594 0.42148220539093017578 0.40751737356185913086 0.40794128179550170898 0.41446587443351745605 0.41718384623527526855 0.40996035933494567871 0.3947735130786895752 0.37526670098304748535 0.3628094792366027832 0.35568791627883911133 0.37382692098617553711 0.38858234882354736328 0.40333425998687744141 0.41021496057510375977 0.41082668304443359375 0.38291493058204650879 0.25634106993675231934 0.042859483510255813599 -0.12684416770935058594 -0.23439523577690124512 -0.24450120329856872559 -0.15662087500095367432 -0.088085949420928955078 -0.060019023716449737549 -0.033144362270832061768 0.012098725885152816772 0.048580572009086608887 0.081024900078773498535 0.12496776878833770752 0.14830099046230316162 0.14326922595500946045 0.13377185165882110596 0.12343209236860275269 0.090887092053890228271 0.018301546573638916016 0.023428581655025482178 0.20121642947196960449 0.31591153144836425781 0.34660780429840087891 0.36290723085403442383 0.38027352094650268555 0.39131632447242736816 0.39256599545478820801 -9999 -9999 -9999 -9999 -9999 -9999 -9999
-9999 -9999 -1.0899547338485717773 -1.0633039474487304688 -0.83672112226486206055 -0.63093459606170654297 -0.53499066829681396484 -0.45247614383697509766 -0.40962633490562438965 -0.38143271207809448242 -0.32896366715431213379 -0.27839198708534240723 -0.26173353195190429688 -0.2651900947093963623 -0.2978299558162689209 -0.31800174713134765625 -0.29444244503974914551 -0.26656997203826904297 -0.25349539518356323242 -0.20178242027759552002 -0.140501365065574646 -0.096792072057723999023 -0.060452502220869064331 -0.0320550575852394104 -0.004028275609016418457 0.012563401833176612854 0.0085167270153760910034 0.0016472608549520373344 -0.038586106151342391968 -0.19683676958084106445 -0.22402612864971160889 -0.14202372729778289795 -0.11415294557809829712 -0.12302213907241821289 -0.082699745893478393555 -0.019411046057939529419 0.024295326322317123413 0.047495428472757339478 0.039301197975873947144 0.010520200245082378387 0.038700904697179794312 0.090030960738658905029 0.10445421934127807617 0.12108895182609558105 0.13459368050098419189 0.13116975128650665283 0.11672278493642807007 0.092798009514808654785 0.053632937371730804443 -0.068352825939655303955 -0.22219239175319671631 -0.051212854683399200439 0.19428539276123046875 0.28671950101852416992 0.29549366235733032227 0.28410971164703369141 0.30373966693878173828 0.36091563105583190918 0.44878721237182617188 0.51651406288146972656 0.54426604509353637695 0.54571998119354248047 0.52408117055892944336 0.48659881949424743652 0.45140472054481506348 0.43237066268920898438 0.43410560488700866699 0.43031001091003417969 0.41529831290245056152 0.39308413863182067871 0.36375525593757629395 0.32299667596817016602 0.30359053611755371094 0.30376234650611877441 0.31993865966796875 0.35905587673187255859 0.38702297210693359375 0.40675359964370727539 0.40189591050148010254 0.28732356429100036621 0.068072624504566192627 -0.10724021494388580322 -0.24145086109638214111 -0.26293951272964477539 -0.17590762674808502197 -0.10152078419923782349 -0.068639449775218963623 -0.054960422217845916748 -0.045413140207529067993 -0.027966575697064399719 0.016868205741047859192 0.055811546742916107178 0.037414204329252243042 -0.0049954839050769805908 0.005024377722293138504 0.025302469730377197266 0.0059876339510083198547 -0.0088379001244902610779 0.060688149183988571167 0.23229834437370300293 0.33476853370666503906 0.37235653400421142578 0.39342066645622253418 0.40148907899856567383 0.3934389948844909668 0.38227885961532592773 0.3615188300609588623 -9999 -9999 -9999 -9999 -9999 -9999
-9999 -9999 -1.0977791547775268555 -1.0892413854598999023 -0.88234281539916992188 -0.6758607029914855957 -0.58148401975631713867 -0.51461976766586303711 -0.46768668293952941895 -0.41917151212692260742 -0.36450096964836120605 -0.30429172515869140625 -0.2794475853443145752 -0.30701655149459838867 -0.35985940694808959961 -0.38407331705093383789 -0.35125854611396789551 -0.31437918543815612793 -0.27238404750823974609 -0.22548027336597442627 -0.17553301155567169189 -0.13718685507774353027 -0.10509529709815979004 -0.077714152634143829346 -0.054552737623453140259 -0.062350723892450332642 -0.17721220850944519043 -0.28387093544006347656 -0.24083580076694488525 -0.32272380590438842773 -0.28380417823791503906 -0.20013692975044250488 -0.15981474518775939941 -0.15195767581462860107 -0.11644512414932250977 -0.071376964449882507324 -0.030298482626676559448 -0.012180904857814311981 -0.026549251750111579895 -0.037393838167190551758 0.0036380458623170852661 0.036803722381591796875 0.050438027828931808472 0.067739821970462799072 0.074922122061252593994 0.065418317914009094238 0.026077069342136383057 -0.038389336317777633667 -0.17031030356884002686 -0.25296500325202941895 -0.20614422857761383057 0.00031563351512886583805 0.18716050684452056885 0.28438031673431396484 0.31142824888229370117 0.31684961915016174316 0.34837082028388977051 0.41035598516464233398 0.47457841038703918457 0.51552480459213256836 0.54260122776031494141 0.55332326889038085938 0.55214810371398925781 0.53567975759506225586 0.50374108552932739258 0.48169600963592529297 0.46501716971397399902 0.44721242785453796387 0.42592138051986694336 0.39908060431480407715 0.36307343840599060059 0.30761662125587463379 0.25190064311027526855 0.14781822264194488525 0.13549682497978210449 0.26192465424537658691 0.33888530731201171875 0.39126974344253540039 0.40942788124084472656 0.32687196135520935059 0.11621401458978652954 -0.089586265385150909424 -0.25436776876449584961 -0.29088580608367919922 -0.20067648589611053467 -0.13863371312618255615 -0.10587197542190551758 -0.099385857582092285156 -0.12046350538730621338 -0.11093390733003616333 -0.068608663976192474365 -0.049672186374664306641 -0.11576058715581893921 -0.13454918563365936279 -0.11333362013101577759 -0.092786997556686401367 -0.079867176711559295654 -0.0036836166400462388992 0.14881038665771484375 0.30354914069175720215 0.39305084943771362305 0.4128195643424987793 0.41408106684684753418 0.40830716490745544434 0.38990795612335205078 0.36839619278907775879 0.35155472159385681152 -9999 -9999 -9999 -9999 -9999 -9999
-9999 -9999 -1.1166085004806518555 -1.1378877162933349609 -1.0895262956619262695 -0.76691097021102905273 -0.63350051641464233398 -0.58008855581283569336 -0.53974515199661254883 -0.48848438262939453125 -0.41954591870307922363 -0.35627180337905883789 -0.34236186742782592773 -0.37853670120239257813 -0.41161337494850158691 -0.41999956965446472168 -0.39805871248245239258 -0.34691920876502990723 -0.29040387272834777832 -0.25637143850326538086 -0.22201184928417205811 -0.18304084241390228271 -0.14527229964733123779 -0.12904857099056243896 -0.12750956416130065918 -0.20319974422454833984 -0.44807088375091552734 -0.60619360208511352539 -0.52967935800552368164 -0.50038850307464599609 -0.32315853238105773926 -0.2323414236307144165 -0.20871241390705108643 -0.22477930784225463867 -0.19327847659587860107 -0.13467647135257720947 -0.096443668007850646973 -0.087438650429248809814 -0.10920853167772293091 -0.1099675297737121582 -0.048220541328191757202 -0.021003715693950653076 -0.0069005722180008888245 0.012471673078835010529 0.01705187186598777771 -0.028712678700685501099 -0.16915673017501831055 -0.27004319429397583008 -0.34756669402122497559 -0.28654065728187561035 -0.13454148173332214355 0.050046153366565704346 0.18204990029335021973 0.25985214114189147949 0.2921600043773651123 0.31642842292785644531 0.36793443560600280762 0.43217453360557556152 0.47933498024940490723 0.50554984807968139648 0.52668160200119018555 0.54139107465744018555 0.54953306913375854492 0.5451571345329284668 0.52511739730834960938 0.50406599044799804688 0.48210722208023071289 0.45658436417579650879 0.43426558375358581543 0.41259533166885375977 0.36996909976005554199 0.30537664890289306641 0.22297133505344390869 0.038096867501735687256 -0.059647951275110244751 0.099789150059223175049 0.26303935050964355469 0.36037710309028625488 0.4010168910026550293 0.36042225360870361328 0.13642179965972900391 -0.11221207678318023682 -0.31402787566184997559 -0.35022267699241638184 -0.25181120634078979492 -0.19766961038112640381 -0.1565659642219543457 -0.14539231359958648682 -0.21130557358264923096 -0.21684382855892181396 -0.18103778362274169922 -0.18299944698810577393 -0.20840333402156829834 -0.10846637934446334839 -0.027165560051798820496 -0.0071624461561441421509 0.026785107329487800598 0.11114813387393951416 0.24151615798473358154 0.37037366628646850586 0.42266073822975158691 0.43210569024085998535 0.42603847384452819824 0.40838766098022460938 0.38411405682563781738 0.3584302067756652832 0.34097221493721008301 0.32935094833374023438 -9999 -9999 -9999 -9999 -9999
-9999 -9999 -9999 -1.1661100387573242188 -1.1172369718551635742 -0.79948526620864868164 -0.68035519123077392578 -0.63730424642562866211 -0.5955645442008972168 -0.55088514089584350586 -0.48258918523788452148 -0.42770314216613769531 -0.41819849610328674316 -0.43355152010917663574 -0.4523550868034362793 -0.46486702561378479004 -0.43543124198913574219 -0.37384086847305297852 -0.33659794926643371582 -0.30378046631813049316 -0.26877063512802124023 -0.23390455543994903564 -0.2013508230447769165 -0.20649282634258270264 -0.30475163459777832031 -0.48215132951736450195 -0.66387397050857543945 -0.75522750616073608398 -0.7006518244743347168 -0.56987297534942626953 -0.35771968960762023926 -0.26216658949851989746 -0.24993982911109924316 -0.26492324471473693848 -0.25188484787940979004 -0.19791567325592041016 -0.17058840394020080566 -0.18512980639934539795 -0.20752784609794616699 -0.16195715963840484619 -0.11410905420780181885 -0.089576907455921173096 -0.06851673126220703125 -0.050332382321357727051 -0.053239621222019195557 -0.14026714861392974854 -0.3192093968391418457 -0.38447391986846923828 -0.32761412858963012695 -0.22644540667533874512 -0.065043725073337554932 0.090884178876876831055 0.19090557098388671875 0.24986909329891204834 0.27324202656745910645 0.29150480031967163086 0.34691169857978820801 0.40502905845642089844 0.45937782526016235352 0.49151307344436645508 0.50933593511581420898 0.52645903825759887695 0.54199010133743286133 0.54491961002349853516 0.53416883945465087891 0.50962710380554199219 0.47733858227729797363 0.44240656495094299316 0.42013955116271972656 0.40526428818702697754 0.35637640953063964844 0.22205425798892974854 0.032330852001905441284 -0.14001899957656860352 -0.17821583151817321777 -0.016802912577986717224 0.14915837347507476807 0.29848408699035644531 0.36703711748123168945 0.32125049829483032227 0.10040213167667388916 -0.14483216404914855957 -0.3373298943042755127 -0.39463189244270324707 -0.31973919272422790527 -0.2771352231502532959 -0.22529453039169311523 -0.20756675302982330322 -0.31310248374938964844 -0.31022539734840393066 -0.26557552814483642578 -0.26083475351333618164 -0.20053648948669433594 -0.050449278205633163452 0.050214219838380813599 0.11481519788503646851 0.16322490572929382324 0.22845862805843353271 0.33683025836944580078 0.418670654296875 0.43704655766487121582 0.44406598806381225586 0.43245115876197814941 0.41089907288551330566 0.38648653030395507813 0.35898140072822570801 0.33809053897857666016 0.32846859097480773926 -9999 -9999 -9999 -9999 -9999
-9999 -9999 -9999 -1.2204977273941040039 -1.0857716798782348633 -0.8501262664794921875 -0.74206578731536865234 -0.69082891941070556641 -0.64890408515930175781 -0.60230916738510131836 -0.53915649652481079102 -0.49174520373344421387 -0.48223641514778137207 -0.48899024724960327148 -0.49985581636428833008 -0.51718384027481079102 -0.48207312822341918945 -0.42143270373344421387 -0.37270912528038024902 -0.33091136813163757324 -0.29987335205078125 -0.27300411462783813477 -0.25467228889465332031 -0.27551239728927612305 -0.44496977329254150391 -0.63872510194778442383 -0.77271276712417602539 -0.80816185474395751953 -0.69159787893295288086 -0.51477974653244018555 -0.40566328167915344238 -0.32116732001304626465 -0.29182744026184082031 -0.28282636404037475586 -0.2647393643856048584 -0.24087947607040405273 -0.24371349811553955078 -0.28594660758972167969 -0.28135851025581359863 -0.21281026303768157959 -0.16957335174083709717 -0.16842955350875854492 -0.14471693336963653564 -0.11717728525400161743 -0.12262526899576187134 -0.23852594196796417236 -0.3901844024658203125 -0.34460517764091491699 -0.19889557361602783203 -0.10875425487756729126 0.00046414678217843174934 0.12123538553714752197 0.20145189762115478516 0.2530479729175567627 0.27295395731925964355 0.27983942627906799316 0.30058512091636657715 0.36098551750183105469 0.44578760862350463867 0.4841003119945526123 0.50338375568389892578 0.52587997913360595703 0.54156577587127685547 0.54631572961807250977 0.53546506166458129883 0.50153166055679321289 0.44157621264457702637 0.35825631022453308105 0.31171196699142456055 0.29542750120162963867 0.26214057207107543945 0.095249719917774200439 -0.12751831114292144775 -0.28577271103858947754 -0.24827268719673156738 -0.079147696495056152344 0.10114636272192001343 0.2709140777587890625 0.34377107024192810059 0.29081588983535766602 0.051316212862730026245 -0.17757558822631835938 -0.34574106335639953613 -0.40633574128150939941 -0.39739227294921875 -0.38282445073127746582 -0.31777170300483703613 -0.28179800510406494141 -0.36885422468185424805 -0.31728330254554748535 -0.2402003556489944458 -0.19969844818115234375 -0.12234238535165786743 -0.014648430049419403076 0.067974448204040527344 0.1407101750373840332 0.20735476911067962646 0.29019460082054138184 0.40015891194343566895 0.45094668865203857422 0.45142364501953125 0.44427731633186340332 0.42786201834678649902 0.41178056597709655762 0.39231827855110168457 0.36408701539039611816 0.33809179067611694336 0.32429087162017822266 0.31050035357475280762 -9999 -9999 -9999 -9999
-9999 -9999 -9999 -1.2105003595352172852 -1.1918679475784301758 -0.95929574966430664063 -0.79699862003326416016 -0.74834787845611572266 -0.70566153526306152344 -0.65382933616638183594 -0.58419597148895263672 -0.54161757230758666992 -0.54100126028060913086 -0.5444310307502746582 -0.54602658748626708984 -0.54632467031478881836 -0.49610993266105651855 -0.44332426786422729492 -0.38806360960006713867 -0.35035121440887451172 -0.33239567279815673828 -0.31016299128532409668 -0.29861849546432495117 -0.3224074244499206543 -0.44160741567611694336 -0.65544843673706054688 -0.82578670978546142578 -0.83520358800888061523 -0.68249595165252685547 -0.56607508659362792969 -0.45892834663391113281 -0.39227440953254699707 -0.36595427989959716797 -0.31194517016410827637 -0.26966816186904907227 -0.26072806119918823242 -0.30012109875679016113 -0.36061528325080871582 -0.31642800569534301758 -0.26279848814010620117 -0.24986474215984344482 -0.26625964045524597168 -0.2360153496265411377 -0.19096134603023529053 -0.19476507604122161865 -0.29926329851150512695 -0.43025821447372436523 -0.34195813536643981934 -0.13357053697109222412 0.015368930064141750336 0.10149975866079330444 0.16081771254539489746 0.22339691221714019775 0.27609977126121520996 0.30962821841239929199 0.33946064114570617676 0.32780796289443969727 0.37129011750221252441 0.43024033308029174805 0.44823205471038818359 0.49889546632766723633 0.53742444515228271484 0.54566091299057006836 0.54650914669036865234 0.52569484710693359375 0.46604949235916137695 0.3680623471736907959 0.2477006763219833374 0.18001043796539306641 0.14595203101634979248 0.10416676104068756104 -0.012182776816189289093 -0.16813002526760101318 -0.29987564682960510254 -0.34422826766967773438 -0.13981619477272033691 0.12515144050121307373 0.29733237624168395996 0.3376000821590423584 0.26728111505508422852 0.0065779429860413074493 -0.21315513551235198975 -0.36843532323837280273 -0.40893346071243286133 -0.40831777453422546387 -0.40781193971633911133 -0.40102940797805786133 -0.38985866308212280273 -0.38698866963386535645 -0.2883427739143371582 -0.18858699500560760498 -0.1234916001558303833 -0.074082441627979278564 -0.0060974769294261932373 0.062904819846153259277 0.1309925466775894165 0.20568576455116271973 0.29837614297866821289 0.40431478619575500488 0.43971833586692810059 0.43960809707641601563 0.43230202794075012207 0.41939947009086608887 0.40706789493560791016 0.38872838020324707031 0.36291512846946716309 0.33581915497779846191 0.31664097309112548828 0.30278891324996948242 -9999 -9999 -9999 -9999
-9999 -9999 -1.2220177650451660156 -1.2483882904052734375 -1.2317397594451904297 -0.98740637302398681641 -0.84003567695617675781 -0.81622445583343505859 -0.7701880335807800293 -0.69018787145614624023 -0.62365704774856567383 -0.59486269950866699219 -0.5995724797248840332 -0.61604273319244384766 -0.64201194047927856445 -0.59495943784713745117 -0.50318175554275512695 -0.45339071750640869141 -0.40813744068145751953 -0.38192507624626159668 -0.36545526981353759766 -0.34809774160385131836 -0.33988395333290100098 -0.34971868991851806641 -0.46293988823890686035 -0.69045722484588623047 -0.84820073843002319336 -0.87265056371688842773 -0.7955449223518371582 -0.68700397014617919922 -0.50533545017242431641 -0.39096814393997192383 -0.33896166086196899414 -0.30306327342987060547 -0.27536410093307495117 -0.28344100713729858398 -0.34186246991157531738 -0.4008623659610748291 -0.36943414807319641113 -0.32955750823020935059 -0.33170741796493530273 -0.3442135155200958252 -0.29765710234642028809 -0.26670435070991516113 -0.29892715811729431152 -0.39153370261192321777 -0.49422523379325866699 -0.36039936542510986328 -0.12807033956050872803 0.040307510644197463989 0.1463890373706817627 0.20164096355438232422 0.25745761394500732422 0.30943644046783447266 0.36432662606239318848 0.415851593017578125 0.41169279813766479492 0.37610891461372375488 0.2523753046989440918 0.29783180356025695801 0.44631013274192810059 0.53537648916244506836 0.54200255870819091797 0.52970927953720092773 0.46423092484474182129 0.36901709437370300293 0.28141525387763977051 0.1828282475471496582 0.11789945513010025024 0.067852355539798736572 0.026930917054414749146 -0.026389922946691513062 -0.037368878722190856934 -0.20760585367679595947 -0.3692881166934967041 -0.20071579515933990479 0.086079135537147521973 0.20870178937911987305 0.24947659671306610107 0.22076651453971862793 -0.011753253638744354248 -0.23944447934627532959 -0.39461547136306762695 -0.41298535466194152832 -0.40926563739776611328 -0.40708765387535095215 -0.40876269340515136719 -0.40203467011451721191 -0.35337889194488525391 -0.26616999506950378418 -0.17670427262783050537 -0.11260540783405303955 -0.06819890439510345459 -0.010320121422410011292 0.049961078912019729614 0.11300600320100784302 0.18660409748554229736 0.28053459525108337402 0.37099537253379821777 0.40183517336845397949 0.41032749414443969727 0.41322493553161621094 0.4098224639892578125 0.40007799863815307617 0.38023731112480163574 0.3579590916633605957 0.33407485485076904297 0.31048849225044250488 0.29706072807312011719 0.28860256075859069824 -9999 -9999 -9999
-9999 -1.4984536170959472656 -1.2621698379516601563 -1.1073412895202636719 -1.0250251293182373047 -0.94104403257369995117 -0.90548551082611083984 -0.90154510736465454102 -0.80637723207473754883 -0.7134501338005065918 -0.66419863700866699219 -0.64789402484893798828 -0.65428942441940307617 -0.71091419458389282227 -0.71389609575271606445 -0.58186113834381103516 -0.49351969361305236816 -0.45692238211631774902 -0.42324274778366088867 -0.40742442011833190918 -0.39803481101989746094 -0.38157853484153747559 -0.37214940786361694336 -0.38189554214477539063 -0.50417727231979370117 -0.74795454740524291992 -0.83373236656188964844 -0.9035396575927734375 -0.81597506999969482422 -0.6098003387451171875 -0.47221344709396362305 -0.36813539266586303711 -0.3287855982780456543 -0.30591270327568054199 -0.29422882199287414551 -0.3053537905216217041 -0.34447830915451049805 -0.40424135327339172363 -0.4137528836727142334 -0.40422138571739196777 -0.39091780781745910645 -0.40720996260643005371 -0.38501203060150146484 -0.37112104892730712891 -0.42321029305458068848 -0.4946410059928894043 -0.51452684402465820313 -0.35130512714385986328 -0.13589370250701904297 0.036476742476224899292 0.16010405123233795166 0.22459977865219116211 0.27775797247886657715 0.32366874814033508301 0.3793137967586517334 0.39367029070854187012 0.26133123040199279785 0.072412788867950439453 0.058983989059925079346 0.2339852452278137207 0.38622361421585083008 0.49083021283149719238 0.49845242500305175781 0.45357665419578552246 0.38384595513343811035 0.28954958915710449219 0.22038088738918304443 0.15469205379486083984 0.13417829573154449463 0.13063061237335205078 0.10321827232837677002 0.035815712064504623413 -0.025781517848372459412 -0.21022105216979980469 -0.39447942376136779785 -0.35718825459480285645 -0.2003399282693862915 -0.09332551807165145874 0.02798049338161945343 0.097953118383884429932 -0.044971551746129989624 -0.27021625638008117676 -0.40919700264930725098 -0.41646811366081237793 -0.40900751948356628418 -0.40225890278816223145 -0.39224299788475036621 -0.35855376720428466797 -0.30148661136627197266 -0.24147665500640869141 -0.16652986407279968262 -0.10692696273326873779 -0.065757796168327331543 -0.021766250953078269958 0.027407864108681678772 0.086112618446350097656 0.1578788459300994873 0.26210561394691467285 0.33133068680763244629 0.36300727725028991699 0.3817602992057800293 0.38870340585708618164 0.38899919390678405762 0.38358947634696960449 0.3701394498348236084 0.3544521629810333252 0.33760756254196166992 0.31352657079696655273 0.29397192597389221191 0.27616488933563232422 0.26599338650703430176 -9999 -9999
-9999 -1.4750770330429077148 -1.2498453855514526367 -1.0702130794525146484 -1.0206131935119628906 -0.99274039268493652344 -0.99701040983200073242 -0.93673670291900634766 -0.81115108728408813477 -0.73170191049575805664 -0.74386584758758544922 -0.75373387336730957031 -0.75407707691192626953 -0.80580085515975952148 -0.68971484899520874023 -0.56449943780899047852 -0.49742096662521362305 -0.46457561850547790527 -0.43891984224319458008 -0.42230027914047241211 -0.4094867408275604248 -0.40143126249313354492 -0.39826005697250366211 -0.40972742438316345215 -0.55454009771347045898 -0.74707090854644775391 -0.74671983718872070313 -0.83507150411605834961 -0.74472135305404663086 -0.54885065555572509766 -0.44067412614822387695 -0.36645993590354919434 -0.33302134275436401367 -0.31839072704315185547 -0.31398335099220275879 -0.32355704903602600098 -0.34441611170768737793 -0.40436720848083496094 -0.45216414332389831543 -0.48781231045722961426 -0.46908861398696899414 -0.4799652397632598877 -0.48263910412788391113 -0.49173521995544433594 -0.53445398807525634766 -0.54193019866943359375 -0.4621010124683380127 -0.2827180027961730957 -0.081892490386962890625 0.084192767739295959473 0.16953110694885253906 0.22947098314762115479 0.2834580540657043457 0.31964579224586486816 0.30945348739624023438 0.13528673350811004639 -0.084581330418586730957 -0.17078267037868499756 0.084836736321449279785 0.3673903048038482666 0.44579842686653137207 0.45000985264778137207 0.42566117644309997559 0.39027547836303710938 0.33675932884216308594 0.26151740550994873047 0.22548629343509674072 0.18105357885360717773 0.13337852060794830322 0.11072131246328353882 0.080625742673873901367 0.020729759708046913147 -0.065207004547119140625 -0.19638873636722564697 -0.38942727446556091309 -0.49646997451782226563 -0.45965927839279174805 -0.32760894298553466797 -0.15731310844421386719 -0.039175584912300109863 -0.10154782980680465698 -0.30078649520874023438 -0.41759133338928222656 -0.41820037364959716797 -0.39864382147789001465 -0.36952003836631774902 -0.3289127051830291748 -0.28442755341529846191 -0.23785741627216339111 -0.20525251328945159912 -0.14918231964111328125 -0.10254519432783126831 -0.067130811512470245361 -0.035152830183506011963 0.0041260179132223129272 0.059510443359613418579 0.12618686258792877197 0.23167413473129272461 0.31089201569557189941 0.33884412050247192383 0.35367134213447570801 0.35886055231094360352 0.35992512106895446777 0.35947209596633911133 0.35560700297355651855 0.3496945500373840332 0.34024441242218017578 0.31360456347465515137 0.2854557037353515625 0.26647990942001342773 0.25734987854957580566 0.2461789250373840332 -9999
-9999 -1.5654776096343994141 -1.3422623872756958008 -1.1116626262664794922 -1.0719295740127563477 -1.0761228799819946289 -1.1019079685211181641 -1.0038655996322631836 -0.8797900080680847168 -0.89614790678024291992 -0.9740645289421081543 -0.95679974555969238281 -0.90114426612854003906 -0.78925329446792602539 -0.6429042816162109375 -0.56529921293258666992 -0.51361262798309326172 -0.48002141714096069336 -0.45957213640213012695 -0.44130438566207885742 -0.42296651005744934082 -0.41974914073944091797 -0.44581550359725952148 -0.4852339327335357666 -0.6475086212158203125 -0.82451790571212768555 -0.87606716156005859375 -0.87064290046691894531 -0.66888701915740966797 -0.52318465709686279297 -0.43798530101776123047 -0.36757522821426391602 -0.33719387650489807129 -0.33026346564292907715 -0.32983684539794921875 -0.33536261320114135742 -0.34189200401306152344 -0.38793674111366271973 -0.44579181075096130371 -0.50923275947570800781 -0.53874862194061279297 -0.55756050348281860352 -0.56167167425155639648 -0.58176606893539428711 -0.57496982812881469727 -0.50715357065200805664 -0.37583935260772705078 -0.21017800271511077881 -0.039749875664710998535 0.097772367298603057861 0.15680764615535736084 0.21179851889610290527 0.26658952236175537109 0.27914950251579284668 0.11198721081018447876 -0.19350977241992950439 -0.41383400559425354004 -0.29580172896385192871 0.10160730034112930298 0.44405224919319152832 0.50062143802642822266 0.45701244473457336426 0.38775178790092468262 0.29539525508880615234 0.20833446085453033447 0.14644020795822143555 0.13841778039932250977 0.1107171475887298584 -0.014003624208271503448 -0.10689430683851242065 -0.11787159740924835205 -0.092933639883995056152 -0.12917399406433105469 -0.17768229544162750244 -0.33047977089881896973 -0.44643807411193847656 -0.53733420372009277344 -0.49333560466766357422 -0.26967442035675048828 -0.11577702313661575317 -0.14661307632923126221 -0.31204104423522949219 -0.41977640986442565918 -0.41943341493606567383 -0.3948338627815246582 -0.34121912717819213867 -0.28438574075698852539 -0.23966307938098907471 -0.20562608540058135986 -0.19087086617946624756 -0.14469072222709655762 -0.10841833055019378662 -0.078576110303401947021 -0.056496724486351013184 -0.023174215108156204224 0.030284529551863670349 0.10271906852722167969 0.20909179747104644775 0.28978109359741210938 0.31213921308517456055 0.32159703969955444336 0.3253835141658782959 0.32662507891654968262 0.33222490549087524414 0.33962163329124450684 0.34350898861885070801 0.33195284008979797363 0.30350464582443237305 0.27761089801788330078 0.25886371731758117676 0.24471688270568847656 0.22825145721435546875 -9999
-9999 -1.4888831377029418945 -1.4922965764999389648 -1.2089956998825073242 -1.1369762420654296875 -1.1720266342163085938 -1.257816314697265625 -1.1913412809371948242 -1.0855215787887573242 -1.0548626184463500977 -0.95557504892349243164 -0.84947371482849121094 -0.75135183334350585938 -0.67785543203353881836 -0.61726802587509155273 -0.56179648637771606445 -0.52582734823226928711 -0.50310087203979492188 -0.48449990153312683105 -0.4665820002555847168 -0.45554834604263305664 -0.47650200128555297852 -0.55955338478088378906 -0.70615613460540771484 -0.94575607776641845703 -1.0496486425399780273 -0.98580062389373779297 -0.76558643579483032227 -0.58428668975830078125 -0.4862988889217376709 -0.43426391482353210449 -0.37761506438255310059 -0.34511020779609680176 -0.35124063491821289063 -0.35335871577262878418 -0.34517323970794677734 -0.34008175134658813477 -0.34893035888671875 -0.36905410885810852051 -0.43491122126579284668 -0.52700608968734741211 -0.6113612055778503418 -0.65393358469009399414 -0.63917851448059082031 -0.54924249649047851563 -0.43626260757446289063 -0.33066490292549133301 -0.18549942970275878906 -0.050554942339658737183 0.061619579792022705078 0.12484046816825866699 0.1775674670934677124 0.23495890200138092041 0.26401132345199584961 0.053377300500869750977 -0.33164104819297790527 -0.58075106143951416016 -0.44235539436340332031 -0.063163593411445617676 0.29183074831962585449 0.44228321313858032227 0.4690399467945098877 0.46012538671493530273 0.32628768682479858398 0.089091829955577850342 -0.089319609105587005615 -0.12896911799907684326 -0.1035739704966545105 -0.21491877734661102295 -0.36601710319519042969 -0.34788119792938232422 -0.28581160306930541992 -0.28381624817848205566 -0.29282563924789428711 -0.34344848990440368652 -0.42075484991073608398 -0.56196475028991699219 -0.55062699317932128906 -0.2708028256893157959 -0.13676439225673675537 -0.17636856436729431152 -0.33560326695442199707 -0.4127191007137298584 -0.4126084446907043457 -0.38672325015068054199 -0.32575792074203491211 -0.2779674530029296875 -0.24559675157070159912 -0.22208777070045471191 -0.20184004306793212891 -0.15543442964553833008 -0.12539501488208770752 -0.10148251056671142578 -0.076165162026882171631 -0.045176848769187927246 0.0067376880906522274017 0.084415949881076812744 0.18648575246334075928 0.26714488863945007324 0.28255012631416320801 0.28422391414642333984 0.2865568697452545166 0.28714424371719360352 0.2993004918098449707 0.31481119990348815918 0.32366105914115905762 0.30613607168197631836 0.28364524245262145996 0.26994457840919494629 0.25486466288566589355 0.23426583409309387207 0.21390953660011291504 -9999
-1.7405315637588500977 -1.5753824710845947266 -1.5008111000061035156 -1.2515656948089599609 -1.2034734487533569336 -1.2658485174179077148 -1.3689147233963012695 -1.2382851839065551758 -1.0910080671310424805 -0.90434104204177856445 -0.76670485734939575195 -0.7029876708984375 -0.66168975830078125 -0.63773357868194580078 -0.60553008317947387695 -0.56519770622253417969 -0.54887747764587402344 -0.53795635700225830078 -0.53377819061279296875 -0.53573465347290039063 -0.55124890804290771484 -0.67008966207504272461 -0.88149625062942504883 -1.0794457197189331055 -1.1823182106018066406 -1.0899839401245117188 -0.77909553050994873047 -0.57388824224472045898 -0.5142351984977722168 -0.45630359649658203125 -0.40926066040992736816 -0.38345324993133544922 -0.37881627678871154785 -0.39360019564628601074 -0.39027822017669677734 -0.36468234658241271973 -0.34255969524383544922 -0.33594086766242980957 -0.33579650521278381348 -0.38904580473899841309 -0.52183187007904052734 -0.64046084880828857422 -0.66929638385772705078 -0.60465711355209350586 -0.49961328506469726563 -0.38148576021194458008 -0.26818075776100158691 -0.14900322258472442627 -0.039339490234851837158 0.025057444348931312561 0.084368735551834106445 0.14000463485717773438 0.19995698332786560059 0.25275510549545288086 0.08431590348482131958 -0.37491685152053833008 -0.68945217132568359375 -0.61074841022491455078 -0.27700313925743103027 0.097581215202808380127 0.24360823631286621094 0.34092062711715698242 0.49580872058868408203 0.46883630752563476563 0.21958236396312713623 -0.075946345925331115723 -0.28419333696365356445 -0.35028007626533508301 -0.33202731609344482422 -0.45301029086112976074 -0.50110256671905517578 -0.46352437138557434082 -0.47030523419380187988 -0.45586386322975158691 -0.46888518333435058594 -0.56244730949401855469 -0.65638256072998046875 -0.51227790117263793945 -0.2240022122859954834 -0.13072486221790313721 -0.1878363192081451416 -0.35289674997329711914 -0.40758854150772094727 -0.40750262141227722168 -0.38619971275329589844 -0.31912434101104736328 -0.28077629208564758301 -0.26277935504913330078 -0.24097266793251037598 -0.21186885237693786621 -0.17040078341960906982 -0.13814449310302734375 -0.11079537868499755859 -0.080734752118587493896 -0.047254372388124465942 0.011016285046935081482 0.084082104265689849854 0.16738015413284301758 0.23778085410594940186 0.25004839897155761719 0.24424783885478973389 0.24048924446105957031 0.24397514760494232178 0.26375696063041687012 0.27752792835235595703 0.28014269471168518066 0.27505081892013549805 0.26902478933334350586 0.2638187408447265625 0.25581669807434082031 0.23772387206554412842 0.21132241189479827881 -9999
-1.6637853384017944336 -1.5537143945693969727 -1.3724772930145263672 -1.2444499731063842773 -1.2552754878997802734 -1.3714340925216674805 -1.3745146989822387695 -1.1056593656539916992 -0.9174944758415222168 -0.80351889133453369141 -0.74010330438613891602 -0.68464732170104980469 -0.66143995523452758789 -0.64842045307159423828 -0.62772846221923828125 -0.61320912837982177734 -0.69371324777603149414 -0.78052699565887451172 -0.83238387107849121094 -0.89468896389007568359 -1.005686640739440918 -1.1698433160781860352 -1.3047471046447753906 -1.3043086528778076172 -1.1415369510650634766 -0.84739953279495239258 -0.60482203960418701172 -0.48502573370933532715 -0.4461911618709564209 -0.41742098331451416016 -0.3860632479190826416 -0.38860276341438293457 -0.41115993261337280273 -0.41628447175025939941 -0.40488451719284057617 -0.37666782736778259277 -0.34811291098594665527 -0.3382059931755065918 -0.34087133407592773438 -0.41504725813865661621 -0.58717477321624755859 -0.67070847749710083008 -0.65269529819488525391 -0.55136728286743164063 -0.42041102051734924316 -0.2739359438419342041 -0.14436353743076324463 -0.057366587221622467041 -0.0073550557717680931091 0.01112382207065820694 0.061361450701951980591 0.11739712953567504883 0.16203950345516204834 0.1757736504077911377 -0.065973490476608276367 -0.48786765336990356445 -0.76367735862731933594 -0.63647514581680297852 -0.39398646354675292969 -0.19264012575149536133 -0.13028223812580108643 0.029567755758762359619 0.29135400056838989258 0.45205783843994140625 0.36484873294830322266 0.11085214465856552124 -0.20110309123992919922 -0.45584180951118469238 -0.4875895380973815918 -0.49865710735321044922 -0.61455214023590087891 -0.63977360725402832031 -0.64868026971817016602 -0.63110595941543579102 -0.67913317680358886719 -0.74238175153732299805 -0.70576906204223632813 -0.47589257359504699707 -0.16608412563800811768 -0.098601482808589935303 -0.19515423476696014404 -0.35869771242141723633 -0.40542510151863098145 -0.40530258417129516602 -0.38075941801071166992 -0.31230312585830688477 -0.27922940254211425781 -0.26893392205238342285 -0.24794466793537139893 -0.21468374133110046387 -0.1774266660213470459 -0.13652020692825317383 -0.10210048407316207886 -0.069612480700016021729 -0.034882217645645141602 0.01538661029189825058 0.08112099766731262207 0.15476068854331970215 0.21106033027172088623 0.21289739012718200684 0.20288668572902679443 0.19591051340103149414 0.199597969651222229 0.21987752616405487061 0.23531956970691680908 0.2448009103536605835 0.25102224946022033691 0.25770804286003112793 0.2608070671558380127 0.25962916016578674316 0.24666939675807952881 0.21247848868370056152 -9999
-1.5463958978652954102 -1.4495357275009155273 -1.3597866296768188477 -1.3205759525299072266 -1.3447479009628295898 -1.4537314176559448242 -1.3504314422607421875 -1.1273148059844970703 -0.91929161548614501953 -0.7977988123893737793 -0.7451496124267578125 -0.69020676612854003906 -0.67260712385177612305 -0.70240586996078491211 -0.8024056553840637207 -0.88129657506942749023 -1.0811120271682739258 -1.29550933837890625 -1.3723046779632568359 -1.4137848615646362305 -1.4581047296524047852 -1.4586462974548339844 -1.3598042726516723633 -1.1322386264801025391 -0.79443395137786865234 -0.62722718715667724609 -0.53175729513168334961 -0.46917077898979187012 -0.43241521716117858887 -0.41106444597244262695 -0.40350192785263061523 -0.41109105944633483887 -0.42434993386268615723 -0.42570298910140991211 -0.40524309873580932617 -0.3774521946907043457 -0.34942147135734558105 -0.34005868434906005859 -0.35508826375007629395 -0.46969121694564819336 -0.64162856340408325195 -0.68292462825775146484 -0.6165078282356262207 -0.47750604152679443359 -0.35694676637649536133 -0.21189484000205993652 -0.074895314872264862061 -0.0084042167291045188904 -0.0032266366761177778244 0.0053060119971632957458 0.047977160662412643433 0.10097039490938186646 0.13392058014869689941 0.010598617605865001678 -0.32164719700813293457 -0.64644318819046020508 -0.8277003169059753418 -0.66235053539276123047 -0.50307071208953857422 -0.51102948188781738281 -0.50677686929702758789 -0.33098646998405456543 -0.10129240155220031738 0.20061218738555908203 0.37679260969161987305 0.27696070075035095215 -0.089320860803127288818 -0.46856591105461120605 -0.64108926057815551758 -0.64719450473785400391 -0.70003753900527954102 -0.73736244440078735352 -0.74460196495056152344 -0.77653229236602783203 -0.80295413732528686523 -0.80501276254653930664 -0.70955014228820800781 -0.45695775747299194336 -0.17242775857448577881 -0.12108626216650009155 -0.22428239881992340088 -0.3613828122615814209 -0.40853703022003173828 -0.40825393795967102051 -0.37288323044776916504 -0.30628812313079833984 -0.27179250121116638184 -0.2576866447925567627 -0.23837929964065551758 -0.21417246758937835693 -0.18395791947841644287 -0.14343397319316864014 -0.10486420989036560059 -0.068631336092948913574 -0.028518611565232276917 0.011866595596075057983 0.062774613499641418457 0.12726806104183197021 0.1758086085319519043 0.18328127264976501465 0.17105409502983093262 0.15915535390377044678 0.15686421096324920654 0.16495090723037719727 0.18581306934356689453 0.21230874955654144287 0.22809004783630371094 0.24578559398651123047 0.25439187884330749512 0.25199091434478759766 0.24325379729270935059 0.22993336617946624756 -9999
-1.4634577035903930664 -1.4271512031555175781 -1.4030115604400634766 -1.4022976160049438477 -1.4467252492904663086 -1.5277738571166992188 -1.3459947109222412109 -1.1368387937545776367 -0.89565992355346679688 -0.77644807100296020508 -0.71152424812316894531 -0.67169171571731567383 -0.66328155994415283203 -0.79991692304611206055 -1.0435190200805664063 -1.1986560821533203125 -1.3818341493606567383 -1.5590906143188476563 -1.6418790817260742188 -1.6550782918930053711 -1.5504703521728515625 -1.3888657093048095703 -1.2217613458633422852 -0.93797993659973144531 -0.64529126882553100586 -0.59121501445770263672 -0.5395876765251159668 -0.5130704045295715332 -0.51089882850646972656 -0.47471028566360473633 -0.4431146085262298584 -0.44196268916130065918 -0.44175761938095092773 -0.42697638273239135742 -0.40429025888442993164 -0.38352376222610473633 -0.36042246222496032715 -0.3520851433277130127 -0.38708996772766113281 -0.53146189451217651367 -0.67919975519180297852 -0.72167891263961791992 -0.56900829076766967773 -0.41485443711280822754 -0.32410764694213867188 -0.20495091378688812256 -0.08631315082311630249 -0.039649412035942077637 -0.087397255003452301025 -0.083167128264904022217 0.010942027904093265533 0.07117497175931930542 0.075064398348331451416 -0.18308660387992858887 -0.50468623638153076172 -0.77857571840286254883 -0.90034097433090209961 -0.71609508991241455078 -0.5660654902458190918 -0.63956022262573242188 -0.70112460851669311523 -0.62028259038925170898 -0.47530600428581237793 -0.15107512474060058594 0.17075936496257781982 0.26014000177383422852 -0.0040128831751644611359 -0.38415172696113586426 -0.68431907892227172852 -0.79948508739471435547 -0.83673572540283203125 -0.84746277332305908203 -0.82494598627090454102 -0.79533898830413818359 -0.7124302983283996582 -0.66539609432220458984 -0.61121726036071777344 -0.46616122126579284668 -0.24197980761528015137 -0.20943106710910797119 -0.29493767023086547852 -0.38465759158134460449 -0.41335767507553100586 -0.41280272603034973145 -0.36853349208831787109 -0.30704256892204284668 -0.26736807823181152344 -0.2436771094799041748 -0.22979569435119628906 -0.2119897007942199707 -0.18367816507816314697 -0.14831370115280151367 -0.11620987206697463989 -0.084341295063495635986 -0.04908104240894317627 -0.014094937592744827271 0.021864201873540878296 0.076877966523170471191 0.12538814544677734375 0.14691591262817382813 0.14075510203838348389 0.12992839515209197998 0.12502539157867431641 0.12686932086944580078 0.13916847109794616699 0.17381864786148071289 0.21151523292064666748 0.23978994786739349365 0.24769151210784912109 0.23919485509395599365 0.22347636520862579346 0.17521163821220397949 -9999
-9999 -1.445210576057434082 -1.4477999210357666016 -1.4559057950973510742 -1.5441451072692871094 -1.5498492717742919922 -1.3252940177917480469 -1.1262810230255126953 -0.86916631460189819336 -0.73969954252243041992 -0.69264853000640869141 -0.65757983922958374023 -0.65713655948638916016 -0.80544620752334594727 -1.1046848297119140625 -1.3695938587188720703 -1.5722337961196899414 -1.7052958011627197266 -1.7393460273742675781 -1.7266706228256225586 -1.5127357244491577148 -1.3014997243881225586 -1.1034692525863647461 -0.790679931640625 -0.62705242633819580078 -0.61333829164505004883 -0.59797233343124389648 -0.59277290105819702148 -0.5953617095947265625 -0.53306120634078979492 -0.47527396678924560547 -0.469940185546875 -0.45973500609397888184 -0.43310225009918212891 -0.41351220011711120605 -0.39768785238265991211 -0.3833694159984588623 -0.38222062587738037109 -0.4088802337646484375 -0.53161251544952392578 -0.66614055633544921875 -0.75949239730834960938 -0.5966313481330871582 -0.4143581688404083252 -0.31298744678497314453 -0.20827062427997589111 -0.13274788856506347656 -0.14118506014347076416 -0.23117306828498840332 -0.25567424297332763672 -0.14215871691703796387 -0.028051439672708511353 -0.08013404160737991333 -0.35076141357421875 -0.63442963361740112305 -0.87835854291915893555 -0.94976073503494262695 -0.78275656700134277344 -0.63302958011627197266 -0.66670298576354980469 -0.80813360214233398438 -0.80906128883361816406 -0.74698853492736816406 -0.49223735928535461426 -0.17083488404750823975 0.019879864528775215149 -0.0021604197099804878235 -0.28703838586807250977 -0.63373076915740966797 -0.87773722410202026367 -0.9433682560920715332 -0.93168997764587402344 -0.82054799795150756836 -0.63311338424682617188 -0.48948174715042114258 -0.42292678356170654297 -0.42830717563629150391 -0.41197800636291503906 -0.30645847320556640625 -0.28880661725997924805 -0.36280867457389831543 -0.40619701147079467773 -0.40984201431274414063 -0.40948468446731567383 -0.3622493445873260498 -0.30076879262924194336 -0.26371163129806518555 -0.24663697183132171631 -0.24945351481437683105 -0.22566977143287658691 -0.18461853265762329102 -0.14795218408107757568 -0.12440202385187149048 -0.10048556327819824219 -0.075903497636318206787 -0.051758442074060440063 -0.025155015289783477783 0.02907562255859375 0.08668171614408493042 0.11651957035064697266 0.11501592397689819336 0.10718382149934768677 0.10267871618270874023 0.10580123960971832275 0.12425307184457778931 0.15894755721092224121 0.1999289095401763916 0.23386959731578826904 0.24288916587829589844 0.23237946629524230957 0.20219363272190093994 0.15777234733104705811 -9999
-9999 -9999 -1.46643829345703125 -1.4946951866149902344 -1.6059564352035522461 -1.5405483245849609375 -1.3436616659164428711 -1.1384235620498657227 -0.84887468814849853516 -0.69513225555419921875 -0.65729570388793945313 -0.6173025965690612793 -0.62920361757278442383 -0.84106779098510742188 -1.2044575214385986328 -1.4655681848526000977 -1.6651500463485717773 -1.7670820951461791992 -1.7784429788589477539 -1.7485439777374267578 -1.4991409778594970703 -1.2557783126831054688 -1.0053130388259887695 -0.73187619447708129883 -0.63607245683670043945 -0.63863462209701538086 -0.64269500970840454102 -0.6241626739501953125 -0.59583431482315063477 -0.55418670177459716797 -0.51555806398391723633 -0.48735013604164123535 -0.47175061702728271484 -0.45552232861518859863 -0.43497571349143981934 -0.41324430704116821289 -0.40172037482261657715 -0.40154191851615905762 -0.41091924905776977539 -0.4653809964656829834 -0.60538345575332641602 -0.7662798762321472168 -0.66989064216613769531 -0.43906813859939575195 -0.30128964781761169434 -0.19866572320461273193 -0.14987432956695556641 -0.23669989407062530518 -0.3668645024299621582 -0.4372406303882598877 -0.39431303739547729492 -0.33992889523506164551 -0.44397884607315063477 -0.61090904474258422852 -0.77068722248077392578 -0.95245248079299926758 -1.0418801307678222656 -0.90390759706497192383 -0.7295863032341003418 -0.69710040092468261719 -0.84740555286407470703 -0.98734086751937866211 -0.91615682840347290039 -0.71527892351150512695 -0.48695763945579528809 -0.29202878475189208984 -0.183405265212059021 -0.27310582995414733887 -0.60713940858840942383 -0.91958075761795043945 -0.95525056123733520508 -0.90645581483840942383 -0.74536842107772827148 -0.48613893985748291016 -0.19915702939033508301 -0.088331811130046844482 -0.20789122581481933594 -0.26593247056007385254 -0.24886341392993927002 -0.29602491855621337891 -0.3791598975658416748 -0.40645095705986022949 -0.40592557191848754883 -0.40499266982078552246 -0.36259233951568603516 -0.29900619387626647949 -0.27062374353408813477 -0.26746293902397155762 -0.2699928581714630127 -0.25293421745300292969 -0.20494738221168518066 -0.16858014464378356934 -0.13978438079357147217 -0.11867136508226394653 -0.099526882171630859375 -0.084233969449996948242 -0.058981928974390029907 0.0064198616892099380493 0.065052233636379241943 0.090911842882633209229 0.091044135391712188721 0.085974507033824920654 0.083271943032741546631 0.087239988148212432861 0.10781594365835189819 0.15350955724716186523 0.18971456587314605713 0.21322561800479888916 0.22817179560661315918 0.22522941231727600098 0.19654512405395507813 0.16341939568519592285 -9999
-9999 -9999 -9999 -9999 -1.6337963342666625977 -1.5304257869720458984 -1.3243844509124755859 -1.1492365598678588867 -0.85805922746658325195 -0.68437337875366210938 -0.63032263517379760742 -0.57182919979095458984 -0.60512530803680419922 -0.99615198373794555664 -1.3892655372619628906 -1.5842934846878051758 -1.7153744697570800781 -1.7840043306350708008 -1.7834619283676147461 -1.7318559885025024414 -1.5165495872497558594 -1.2689303159713745117 -0.93165999650955200195 -0.73140108585357666016 -0.68924790620803833008 -0.69464075565338134766 -0.67780405282974243164 -0.63308387994766235352 -0.58644032478332519531 -0.55311447381973266602 -0.54059404134750366211 -0.51389384269714355469 -0.49098184704780578613 -0.48042285442352294922 -0.46727028489112854004 -0.44341871142387390137 -0.41702556610107421875 -0.40875041484832763672 -0.40858069062232971191 -0.43022140860557556152 -0.5883114933967590332 -0.77495753765106201172 -0.70911747217178344727 -0.43345084786415100098 -0.26877605915069580078 -0.19163505733013153076 -0.20778785645961761475 -0.33883959054946899414 -0.4658431708812713623 -0.57634305953979492188 -0.57470798492431640625 -0.56090205907821655273 -0.69900757074356079102 -0.86024862527847290039 -0.91776281595230102539 -1.0162274837493896484 -1.086600184440612793 -0.99909812211990356445 -0.77819424867630004883 -0.69352459907531738281 -0.80362266302108764648 -0.99996697902679443359 -1.0472415685653686523 -0.88703405857086181641 -0.74531495571136474609 -0.66706264019012451172 -0.60171848535537719727 -0.52325624227523803711 -0.69685661792755126953 -0.93829113245010375977 -0.91031801700592041016 -0.76539111137390136719 -0.63928318023681640625 -0.41457718610763549805 -0.1161100342869758606 0.049918230623006820679 -0.0022714924998581409454 -0.090705737471580505371 -0.16339091956615447998 -0.2930336296558380127 -0.37970590591430664063 -0.40601685643196105957 -0.40441378951072692871 -0.39753434062004089355 -0.34717586636543273926 -0.29333481192588806152 -0.27922397851943969727 -0.27927285432815551758 -0.27578237652778625488 -0.27101790904998779297 -0.24282325804233551025 -0.19575245678424835205 -0.16085807979106903076 -0.13970699906349182129 -0.12659290432929992676 -0.11779505014419555664 -0.07468856126070022583 -0.0013706368627026677132 0.044403273612260818481 0.063114486634731292725 0.067638523876667022705 0.065824545919895172119 0.070668071508407592773 0.084561757743358612061 0.11150921881198883057 0.15170161426067352295 0.17820082604885101318 0.1998097151517868042 0.21743059158325195313 0.21583479642868041992 0.19051432609558105469 0.15851387381553649902 -9999
-9999 -9999 -9999 -9999 -9999 -9999 -1.2602357864379882813 -1.1305230855941772461 -0.91464275121688842773 -0.7320219874382019043 -0.65347427129745483398 -0.61196982860565185547 -0.65922701358795166016 -1.0510191917419433594 -1.4490500688552856445 -1.6668256521224975586 -1.7691818475723266602 -1.7939517498016357422 -1.7677843570709228516 -1.7129801511764526367 -1.5972687005996704102 -1.3446611166000366211 -0.94284617900848388672 -0.77116125822067260742 -0.74633812904357910156 -0.74052488803863525391 -0.69029957056045532227 -0.62610042095184326172 -0.57476162910461425781 -0.54648983478546142578 -0.54479420185089111328 -0.55850815773010253906 -0.55482214689254760742 -0.51947307586669921875 -0.52557939291000366211 -0.53347724676132202148 -0.50846999883651733398 -0.46696990728378295898 -0.47262775897979736328 -0.61377799510955810547 -0.80086249113082885742 -0.8267580866813659668 -0.64478313922882080078 -0.38175469636917114258 -0.25184699892997741699 -0.22362905740737915039 -0.31549760699272155762 -0.47208178043365478516 -0.59105795621871948242 -0.70251005887985229492 -0.71092689037322998047 -0.69384974241256713867 -0.79332971572875976563 -0.92695629596710205078 -1.0094171762466430664 -1.0890457630157470703 -1.1454573869705200195 -1.0653421878814697266 -0.85505712032318115234 -0.7243671417236328125 -0.78415471315383911133 -0.9804179072380065918 -1.1372621059417724609 -1.0539575815200805664 -0.9278799891471862793 -0.89950460195541381836 -0.89898169040679931641 -0.86980634927749633789 -0.93490087985992431641 -0.95121908187866210938 -0.83275395631790161133 -0.60009461641311645508 -0.44808939099311828613 -0.3127650916576385498 -0.084747940301895141602 0.059744443744421005249 0.047020975500345230103 -0.027627948671579360962 -0.14901404082775115967 -0.29897895455360412598 -0.37868544459342956543 -0.40673220157623291016 -0.40549227595329284668 -0.38315996527671813965 -0.33715975284576416016 -0.30773019790649414063 -0.30277499556541442871 -0.29986107349395751953 -0.28918766975402832031 -0.27354323863983154297 -0.24621368944644927979 -0.20758005976676940918 -0.18768426775932312012 -0.16962867975234985352 -0.15045133233070373535 -0.13296627998352050781 -0.075487077236175537109 -0.004685977008193731308 0.024763746187090873718 0.040122803300619125366 0.0457132682204246521 0.044760826975107192993 0.058285310864448547363 0.081762887537479400635 0.11552802473306655884 0.14598447084426879883 0.16708105802536010742 0.18590500950813293457 0.19863784313201904297 0.19537469744682312012 0.16642543673515319824 0.14392067492008209229 -9999
-9999 -9999 -9999 -9999 -9999 -9999 -1.2340190410614013672 -1.1490395069122314453 -0.97570919990539550781 -0.83927232027053833008 -0.73011356592178344727 -0.66503983736038208008 -0.66237801313400268555 -0.90818428993225097656 -1.2884631156921386719 -1.5645614862442016602 -1.7507153749465942383 -1.832111358642578125 -1.7790987491607666016 -1.7544766664505004883 -1.6734395027160644531 -1.4216260910034179688 -0.98421460390090942383 -0.82974249124526977539 -0.81657016277313232422 -0.76711374521255493164 -0.69802325963973999023 -0.61927133798599243164 -0.5757350921630859375 -0.57851129770278930664 -0.69432270526885986328 -0.83688586950302124023 -0.85809683799743652344 -0.72601222991943359375 -0.67441797256469726563 -0.81798499822616577148 -0.82308620214462280273 -0.74504351615905761719 -0.76356941461563110352 -0.87432080507278442383 -0.79213219881057739258 -0.5951385498046875 -0.44303619861602783203 -0.30184978246688842773 -0.25705119967460632324 -0.30859383940696716309 -0.43800961971282958984 -0.5487092137336730957 -0.62313640117645263672 -0.70407342910766601563 -0.79742336273193359375 -0.81496435403823852539 -0.83914458751678466797 -0.85215425491333007813 -0.89963126182556152344 -1.0338953733444213867 -1.1697484254837036133 -1.1623833179473876953 -0.98681503534317016602 -0.80799233913421630859 -0.78963351249694824219 -0.94387471675872802734 -1.1632021665573120117 -1.1742430925369262695 -1.0981123447418212891 -1.1039805412292480469 -1.1242835521697998047 -1.1303681135177612305 -1.1039556264877319336 -0.94728052616119384766 -0.74376159906387329102 -0.44602683186531066895 -0.22618456184864044189 -0.15583379566669464111 -0.034924443811178207397 0.040552537888288497925 0.034997850656509399414 -0.010465722531080245972 -0.13379558920860290527 -0.28215700387954711914 -0.36939772963523864746 -0.40561044216156005859 -0.40493130683898925781 -0.38522002100944519043 -0.35560888051986694336 -0.33611226081848144531 -0.32988426089286804199 -0.32925486564636230469 -0.31531479954719543457 -0.28708955645561218262 -0.26323592662811279297 -0.23775945603847503662 -0.22367066144943237305 -0.2085069119930267334 -0.18165637552738189697 -0.14052985608577728271 -0.070995695888996124268 -0.0052571501582860946655 0.013947445899248123169 0.025027699768543243408 0.024829266592860221863 0.018408667296171188354 0.038179446011781692505 0.068455763161182403564 0.10550046712160110474 0.13681659102439880371 0.15429913997650146484 0.16638571023941040039 0.16848319768905639648 0.15473635494709014893 0.13477338850498199463 0.12913966178894042969 -9999
-9999 -9999 -9999 -9999 -9999 -9999 -9999 -1.2067629098892211914 -1.0582101345062255859 -0.91522121429443359375 -0.80862450599670410156 -0.72302716970443725586 -0.66410046815872192383 -0.73633676767349243164 -1.0648156404495239258 -1.4100152254104614258 -1.6596621274948120117 -1.8507307767868041992 -1.8381155729293823242 -1.8009473085403442383 -1.7247596979141235352 -1.5285999774932861328 -1.2018896341323852539 -1.0264073610305786133 -0.84369146823883056641 -0.75408768653869628906 -0.69399905204772949219 -0.62349247932434082031 -0.62142622470855712891 -0.76651078462600708008 -1.0106904506683349609 -1.1536769866943359375 -1.167958378791809082 -1.1029992103576660156 -0.98833966255187988281 -1.0462607145309448242 -0.93926018476486206055 -0.85755294561386108398 -0.83939856290817260742 -0.7239170074462890625 -0.51543539762496948242 -0.38120287656784057617 -0.31493726372718811035 -0.25566715002059936523 -0.2406558692455291748 -0.33803856372833251953 -0.45876902341842651367 -0.48304700851440429688 -0.48355680704116821289 -0.56990581750869750977 -0.75275331735610961914 -0.90282076597213745117 -0.96526896953582763672 -0.90746045112609863281 -0.80061411857604980469 -0.86298429965972900391 -1.0434832572937011719 -1.1985449790954589844 -1.1330866813659667969 -0.91568422317504882813 -0.7784093022346496582 -0.87631696462631225586 -1.1340513229370117188 -1.2650437355041503906 -1.2584961652755737305 -1.2750220298767089844 -1.2710845470428466797 -1.2418035268783569336 -1.1656975746154785156 -0.94312447309494018555 -0.65646308660507202148 -0.32267263531684875488 -0.077740155160427093506 -0.034244902431964874268 -0.0015730225713923573494 0.015381826087832450867 0.018023656681180000305 -0.0056506893597543239594 -0.11329223215579986572 -0.25686109066009521484 -0.34648841619491577148 -0.39330339431762695313 -0.40700176358222961426 -0.40484789013862609863 -0.3971131443977355957 -0.38546526432037353516 -0.3781236112117767334 -0.38402733206748962402 -0.36350837349891662598 -0.32346451282501220703 -0.30634969472885131836 -0.28615918755531311035 -0.27049684524536132813 -0.26087781786918640137 -0.21318778395652770996 -0.1417716294527053833 -0.078062348067760467529 -0.020229324698448181152 0.0058867530897259712219 0.011273998767137527466 0.0041592982597649097443 2.1102996470290236175e-05 0.026128444820642471313 0.062089249491691589355 0.10183089971542358398 0.12708106637001037598 0.13912145793437957764 0.14546987414360046387 0.14285112917423248291 0.12903253734111785889 0.1181257590651512146 0.11917866021394729614 -9999
-9999 -9999 -9999 -9999 -9999 -9999 -9999 -1.203328251838684082 -1.1217646598815917969 -0.99714523553848266602 -0.89847290515899658203 -0.80354112386703491211 -0.7290821075439453125 -0.74232721328735351563 -1.0176094770431518555 -1.3983727693557739258 -1.6675655841827392578 -1.8676404953002929688 -1.8903868198394775391 -1.8265781402587890625 -1.7554652690887451172 -1.6149948835372924805 -1.3869535923004150391 -1.0633355379104614258 -0.80147922039031982422 -0.73959952592849731445 -0.68424379825592041016 -0.62329238653182983398 -0.69795942306518554688 -0.98341333866119384766 -1.2041490077972412109 -1.2462860345840454102 -1.080002903938293457 -1.0400663614273071289 -1.0471577644348144531 -0.98964136838912963867 -0.72267770767211914063 -0.54264742136001586914 -0.4928703010082244873 -0.43226149678230285645 -0.35973501205444335938 -0.33014136552810668945 -0.28131023049354553223 -0.23028512299060821533 -0.20722666382789611816 -0.29431387782096862793 -0.38152652978897094727 -0.3638401329517364502 -0.37271827459335327148 -0.52019047737121582031 -0.73144310712814331055 -0.91714090108871459961 -1.073695063591003418 -1.0333089828491210938 -0.90635079145431518555 -0.91444224119186401367 -0.98042792081832885742 -1.1809055805206298828 -1.2557085752487182617 -1.0286006927490234375 -0.76569771766662597656 -0.81213307380676269531 -1.0970605611801147461 -1.3172066211700439453 -1.3570781946182250977 -1.3197095394134521484 -1.2220286130905151367 -1.1650117635726928711 -1.1188220977783203125 -0.91549706459045410156 -0.64515340328216552734 -0.34751200675964355469 -0.098590038716793060303 -0.031920690089464187622 -0.0057078897953033447266 0.00302090449258685112 0.00030398540548048913479 -0.030422452837228775024 -0.13593946397304534912 -0.25873538851737976074 -0.32632473111152648926 -0.36838790774345397949 -0.39789128303527832031 -0.40539202094078063965 -0.41087952256202697754 -0.42962715029716491699 -0.44984906911849975586 -0.4436868131160736084 -0.409137725830078125 -0.37519684433937072754 -0.35030755400657653809 -0.33273661136627197266 -0.31366449594497680664 -0.28648552298545837402 -0.21682158112525939941 -0.14231014251708984375 -0.092254512012004852295 -0.04454161226749420166 -0.01639023609459400177 -0.0072150705382227897644 -0.012302378192543983459 -0.016755072399973869324 0.016543099656701087952 0.056657698005437850952 0.088528148829936981201 0.11011020094156265259 0.12617833912372589111 0.13158950209617614746 0.12528580427169799805 0.10946248471736907959 0.10081397742033004761 -9999 -9999
-9999 -9999 -9999 -9999 -9999 -9999 -9999 -1.2281353473663330078 -1.1627036333084106445 -1.05426025390625 -0.94575548171997070313 -0.87994825839996337891 -0.83776944875717163086 -0.85581111907958984375 -1.2364557981491088867 -1.5712605714797973633 -1.7965570688247680664 -1.9200341701507568359 -1.9170243740081787109 -1.8656926155090332031 -1.7864120006561279297 -1.5389680862426757813 -1.1501103639602661133 -0.916362762451171875 -0.79248332977294921875 -0.74329859018325805664 -0.68897205591201782227 -0.67855721712112426758 -0.85872006416320800781 -1.1442632675170898438 -1.307549595832824707 -1.1344941854476928711 -0.86793828010559082031 -0.83889746665954589844 -0.82523840665817260742 -0.72391366958618164063 -0.54617094993591308594 -0.42863374948501586914 -0.37620687484741210938 -0.34447059035301208496 -0.3317508697509765625 -0.35466122627258300781 -0.3406340181827545166 -0.26050278544425964355 -0.20293891429901123047 -0.24564209580421447754 -0.33517020940780639648 -0.35334354639053344727 -0.46227863430976867676 -0.68955844640731811523 -0.90960019826889038086 -1.1210912466049194336 -1.1648740768432617188 -1.0854597091674804688 -1.072359919548034668 -1.1404975652694702148 -1.1524376869201660156 -1.2325347661972045898 -1.331864476203918457 -1.18503570556640625 -0.93706536293029785156 -0.86408650875091552734 -1.0968348979949951172 -1.3296386003494262695 -1.3538129329681396484 -1.1921488046646118164 -1.0306532382965087891 -0.97187882661819458008 -1.0004824399948120117 -0.88309741020202636719 -0.6612491607666015625 -0.38615167140960693359 -0.14300423860549926758 -0.056566402316093444824 -0.030396660789847373962 -0.016759024932980537415 -0.029416555538773536682 -0.065416879951953887939 -0.16305083036422729492 -0.26440033316612243652 -0.31219995021820068359 -0.34347823262214660645 -0.36917456984519958496 -0.38419166207313537598 -0.40353685617446899414 -0.43895956873893737793 -0.49980756640434265137 -0.50578701496124267578 -0.43956798315048217773 -0.40197351574897766113 -0.3615506589412689209 -0.33943447470664978027 -0.33765083551406860352 -0.29309666156768798828 -0.17935547232627868652 -0.13246417045593261719 -0.10147627443075180054 -0.06328382343053817749 -0.03875084221363067627 -0.024744419381022453308 -0.023882668465375900269 -0.019058275967836380005 0.010513960383832454681 0.047893125563859939575 0.074439771473407745361 0.097136504948139190674 0.11710426211357116699 0.11831732839345932007 0.10100679844617843628 0.081490822136402130127 0.073375634849071502686 -9999 -9999
